# .PCD v0.7 - Point Cloud Data file format
VERSION 0.7
FIELDS x y z
SIZE 4 4 4
TYPE F F F
COUNT 1 1 1
WIDTH 1615
HEIGHT 1
VIEWPOINT 0 0 0 1 0 0 0
POINTS 1615
DATA ascii
931.16205 1259.6848 1028.8214
909.10181 1211.0227 987.64563
899.40698 1142.1321 968.16296
902.57031 1177.0168 968.16296
871.948 1177.8214 1022.9722
925.89087 1156.536 968.16302
940.76807 1177.4889 970.47247
986.04865 1367.6195 965.43994
952.71899 1159.2936 991.74084
906.51453 1140.4093 1024.8488
885.00354 1200.7559 1006.2132
927.00513 1152.6102 1028.16
882.61511 1201.5371 1029.8553
913.28748 1165.3673 968.16302
926.93896 1211.7561 973.3363
927.95337 1150.8427 985.00714
953.32977 1171.0989 1012.9293
932.42822 1175.8876 962.49426
942.20959 1176.7556 963.74847
912.90851 1166.583 1028.16
922.46283 1157.136 1028.16
888.9389 1131.8369 987.41223
981.29291 1358.9896 991.08313
944.11108 1250.3612 970.57922
966.15576 1334.9427 1009.3593
959.98212 1341.0173 1002.8381
923.41589 1185.537 1014.1521
890.14417 1198.8998 984.16315
876.41272 1163.0469 1028.16
924.09924 1162.5907 983.68036
903.41736 1193.9263 1038.3925
949.27539 1173.1614 955.1546
934.7168 1253.2217 1000.0708
967.52002 1359.4592 1028.7666
958.93408 1261.4576 948.677
875.01135 1143.7813 1028.16
915.56738 1151.7429 1022.3857
982.03381 1334.6417 953.6001
969.54694 1364.5302 1028.1273
919 1229.4915 1026.5067
881.87183 1134.764 992.96674
941.89893 1176.9136 984.3786
917.94684 1187.964 996.97577
900.01746 1168.9268 1028.16
880.27759 1202.3018 994.45959
914.6886 1213.3007 1013.7986
916.75372 1216.0498 1009.7466
954.24719 1298.3657 997.39587
977.69757 1371.0813 1025.7488
873.43469 1173.2504 979.62994
927.08582 1242.4094 1012.2917
950.03448 1267.3674 973.23303
907.17981 1140.5719 978.57904
928.77295 1264.1277 997.91077
972.29248 1355.3197 1019.8386
879.01685 1186.4166 1014.5012
951.90247 1323.0925 1011.0514
919.92377 1138.9375 986.06586
892.47394 1188.8888 1028.16
881.35297 1167.1713 980.43475
914.67236 1180.8683 1028.16
946.64258 1275.8728 991.77673
955.72321 1330.631 1030.1158
925.72632 1260.0142 1011.5545
955.41455 1164.338 1009.2157
892.83746 1130.222 1005.0167
962.70654 1348.8638 1007.7453
933.87646 1221.5032 954.64453
943.30872 1302.0682 1008.0275
879.59302 1197.3054 951.8988
949.4057 1269.8761 959.01587
933.69568 1261.5919 977.81714
991.49963 1355.3331 961.65253
914.74542 1227.5388 1041.9426
882.90674 1178.5795 1010.1476
950.99756 1253.7954 951.6145
960.95905 1334.7893 1040.9536
874.27252 1156.4006 975.83374
880.50262 1167.8241 969.17566
880.73035 1202.1536 1012.7109
917.28009 1199.5686 985.28693
916.75696 1214.1384 1006.5682
922.68756 1221.5393 996.35425
972.08722 1307.3513 952.43085
945.23376 1158.3992 976.70782
938.82666 1172.8802 1035.1666
929.84924 1182.5747 1033.7084
904.7428 1193.3866 962.07184
864.26764 1206.5601 1002.694
886.69519 1198.6995 948.16296
939.14331 1277.3337 980.2666
928.46539 1222.8198 981.02905
928.17096 1157.2378 979.94556
940.3988 1288.543 990.61389
964.26868 1275.6995 949.79968
954.94507 1255.4216 949.30859
961.59857 1280.0889 951.82819
951.19153 1310.0894 1036.007
927.16101 1260.6968 1033.8481
972.07562 1310.9501 963.87378
927.90399 1197.5112 957.88452
962.65961 1347.8267 1028.4762
948.27118 1314.4218 1012.1071
927.24377 1261.1914 1032.8347
925.20074 1164.2539 977.97131
884.15625 1181.6127 1002.4244
916.05115 1210.1829 970.58075
940.19446 1283.6907 1036.484
931.39008 1213.6954 964.78271
928.92017 1156.4194 1006.6912
994.71387 1360.4114 959.37427
945.87012 1294.2351 1026.3667
887.18689 1132.5625 977.69446
868.11578 1201.0354 957.98291
973.00293 1362.7606 1036.4027
964.51837 1341.0983 1031.3573
967.51099 1350.2903 1039.6967
927.20862 1261.9285 1029.9991
970.99341 1311.2526 966.72101
904.84003 1168.2754 1028.16
929.18164 1259.8975 1046.8322
931.3288 1250.6088 1008.7031
900.86157 1126.8986 1006.8082
901.14893 1189.4556 1032.8092
864.82941 1198.4771 1028.16
926.66431 1238.4424 1007.2047
907.94312 1140.5088 1003.9067
895.71521 1137.4266 968.16302
965.93182 1345.5614 1035.7446
927.93304 1164.3917 1014.6491
902.32483 1194.2993 963.76245
951.85095 1171.8512 957.54224
921.76642 1168.9111 968.16302
926.87897 1184.4802 949.01569
889.02893 1153.2594 1028.16
925.17743 1237.2273 974.32043
898.4115 1157.4006 968.16296
892.44812 1198.0505 1039.1471
955.11224 1329.8898 1005.0581
886.41278 1194.9014 1031.0952
937.77448 1270.542 1016.6888
923.42395 1241.2058 1029.3848
870.02032 1205.6567 987.22412
952.60107 1315.736 1048.1467
874.09167 1163.1483 1002.7045
928.19965 1157.2064 1005.4163
910.28955 1209.5985 1029.668
914.1698 1214.707 977.94043
925.81195 1252.3464 1045.7251
910.70831 1140.145 1008.8334
954.27252 1285.2117 981.2702
879.54181 1202.5424 966.00854
866.10712 1206.9368 1036.0719
917.93677 1187.9476 1032.5525
921.68665 1186.3324 1025.7047
924.07056 1246.7712 987.11566
969.02783 1325.1387 986.21637
934.89508 1281.6964 1007.5671
878.72797 1136.0663 980.92505
906.16357 1211.4459 1028.7266
965.27966 1326.6304 999.70703
869.93396 1159.8245 1006.7571
944.70667 1169.8848 954.19226
969.91614 1314.0254 971.93469
928.21796 1248.3516 1018.4445
939.57971 1178.0934 988.91809
929.8858 1234.5013 964.9118
972.66034 1334.2993 986.65955
934.11914 1180.6096 1020.5303
945.70245 1158.1602 993.56146
864.99921 1207.2991 1036.3817
935.12 1174.6473 1030.3701
905.8374 1192.9622 1022.886
977.07349 1325.5854 966.39362
929.5968 1256.8385 1031.5305
933.40088 1253.0253 1004.4351
977.84753 1313.3191 953.96033
971.97119 1359.6699 1033.8154
893.33081 1197.72 1040.7952
892.04779 1168.4434 1028.16
949.68896 1310.9054 1043.7656
873.17139 1178.1218 982.27826
930.51331 1266.4978 1039.9026
930.35718 1266.0984 1039.9543
952.70941 1268.6823 955.29993
876.67004 1178.2739 972.4115
970.90314 1367.6554 1003.9392
973.98444 1372.6176 998.49939
906.55206 1135.5559 1028.16
903.53162 1206.4778 1020.4534
945.2749 1240.4127 958.82916
884.60669 1200.8856 1039.9664
923.93372 1248.8977 1043.5947
937.34485 1174.665 1047.1072
921.09705 1186.6028 1047.9803
948.98779 1305.4484 1038.8848
897.23419 1181.4585 1028.16
969.26599 1330.338 991.5799
930.83752 1234.7689 988.28442
951.03778 1294.9747 1003.5101
960.58398 1329.1309 980.40552
945.33557 1292.844 980.8269
895.25342 1196.9489 955.05902
967.89807 1354.291 1044.8333
916.45313 1188.5812 1021.249
871.48114 1158.5438 996.93658
975.99011 1346.0801 990.93744
939.59143 1237.7482 955.55365
881.66602 1178.491 976.18744
942.06342 1272.3894 1002.1653
880.56415 1151.699 1028.16
995.61841 1362.3381 959.15625
971.216 1359.8914 1042.566
939.60846 1236.7887 967.83911
888.72943 1193.3489 1028.16
973.12988 1330.1501 980.67694
943.68469 1290.9221 1031.7944
982.9975 1366.5497 995.85394
907.54541 1190.7675 948.16302
921.83459 1191.7689 965.85413
917.29901 1239.8567 1014.1401
874.5752 1172.3748 982.55225
911.22717 1223.3262 1030.145
953.60034 1269.8939 954.96106
908.47192 1133.9968 1006.3655
953.51147 1277.8298 958.14758
969.35352 1354.6685 985.37457
925.58459 1156.7986 1028.16
930.73193 1182.168 1041.2802
962.71869 1341.3315 1045.8209
919.91888 1245.299 1025.9814
916.95624 1188.0083 1048.16
974.52728 1345.2904 994.68896
927.24261 1200.575 952.94031
972.15662 1356.5897 1023.8371
950.96167 1156.0049 995.05499
937.74817 1289.0264 1011.8447
944.72571 1303.9203 1030.8076
874.06628 1140.0157 1003.1538
934.22479 1209.4862 950.45044
921.33582 1151.7131 1016.1707
874.47681 1188.4657 975.03448
926.58527 1255.7405 991.5946
940.48962 1260.0084 964.91241
884.79303 1177.955 1028.16
905.9715 1192.1063 1048.16
930.29028 1207.1036 952.65662
874.12427 1147.2957 999.72955
876.05579 1191.2449 1028.16
907.09644 1214.875 1022.4214
909.88458 1140.2534 1026.7925
924.0354 1236.4832 1014.9819
968.09106 1362.42 1014.6526
878.8938 1143.9927 968.16302
980.20117 1338.7458 971.82843
909.83929 1213.6782 988.93713
908.98303 1213.2336 991.57458
870.45941 1159.3284 1002.1871
958.117 1311.9045 1003.2731
941.35596 1277.6776 1013.8414
860.63672 1194.5957 990.79895
909.39142 1216.8687 996.83752
938.36316 1173.1163 1045.1902
921.78992 1139.947 975.01697
956.91138 1167.1385 967.23743
979.01117 1331.8556 967.93622
924.81854 1160.8989 971.00739
880.9917 1157.1667 1028.16
939.57751 1178.0945 1013.2162
898.46143 1127.8926 1026.4963
967.82166 1307.9634 970.96057
988.07971 1352.2114 966.44678
960.44275 1343.8325 1019.4639
920.36273 1186.2971 1048.16
945.37805 1261.0415 978.20142
952.25952 1289.05 965.27515
931.34088 1244.8391 999.73145
953.58264 1319.9438 1044.4922
938.14331 1165.3521 1028.16
951.33698 1156.7072 1003.6321
906.453 1136.5344 1024.5638
951.66901 1319.8198 998.88928
992.85455 1359.0349 962.01855
943.82343 1293.8545 1042.8977
871.26831 1205.2485 962.2251
961.46997 1344.012 1031.7445
903.94751 1207.0715 1008.276
899.12305 1127.6185 1023.6453
958.55865 1338.7396 1007.1092
941.95367 1176.8857 977.07898
935.28979 1275.1978 1045.7834
954.30005 1315.6853 1029.215
891.84686 1191.2832 968.16309
874.69403 1172.2837 980.8786
982.95331 1353.8579 980.66876
862.61115 1201.1047 998.63208
911.70026 1212.2943 981.46368
952.8092 1264.3096 963.75476
948.43689 1303.7198 1037.1694
874.60693 1156.1438 986.40308
879.34869 1168.71 985.45068
878.42328 1163.3408 1026.0708
916.81171 1238.4501 1010.7745
961.66846 1342.7581 996.3504
932.07434 1258.2853 1019.8579
882.87085 1134.3503 971.75183
917.3927 1220.3016 1014.7047
916.68066 1147.5768 975.43323
919.80554 1245.6125 1010.2635
926.65881 1158.889 1008.7762
878.02734 1163.3232 974.03973
934.59552 1231.089 974.19629
925.1095 1257.3735 1004.4335
916.43756 1203.8301 965.83899
956.96777 1316.6335 1016.2186
899.14056 1190.2068 958.93042
945.76733 1239.3042 956.82697
936.79712 1239.8618 959.18359
927.0575 1250.2903 1030.2548
952.76941 1325.1935 1011.1808
994.28802 1364.2122 959.91827
942.54767 1289.2834 1036.1414
932.33459 1254.8801 1011.9674
985.04089 1344.0408 965.63855
882.11768 1164.5134 968.19324
923.82794 1197.1232 966.36188
917.23895 1188.2681 993.10657
879.17676 1186.2703 977.49542
880.27612 1185.2638 985.63647
924.07013 1243.6827 983.13007
952.93689 1171.2988 995.4278
950.94952 1172.3097 1028.2683
929.95618 1266.2311 996.19202
962.04779 1303.4381 980.69348
952.90515 1259.2266 959.16272
893.45398 1192.3043 951.34711
966.01752 1357.2161 1020.0272
929.05383 1150.6979 1009.3986
932.49158 1181.3591 988.12695
944.24316 1302.2881 1000.0981
978.90796 1334.6892 970.92291
933.04675 1226.4651 973.33716
943.33801 1176.1815 955.37067
927.37524 1252.1998 1034.1636
939.00415 1231.7834 953.90271
883.10748 1182.6716 1021.4977
951.87543 1157.7148 1004.2415
863.05658 1202.573 983.92651
886.94238 1200.0771 984.94806
932.71075 1260.9757 1022.5179
909.35876 1203.6185 1020.2512
941.86981 1297.8085 1004.5132
912.44702 1139.9163 986.47485
912.98486 1139.8455 991.01654
944.38733 1290.3269 980.61053
878.63837 1202.8379 1025.3027
959.8114 1323.9728 1017.1272
931.05139 1241.2645 967.15991
903.86438 1185.0386 1028.16
939.4563 1256.9602 989.8526
965.73242 1310.7216 959.70282
926.89685 1158.6292 974.54419
879.57019 1185.91 1010.2167
892.58984 1148.4807 1028.16
945.297 1175.1851 991.35364
937.93201 1178.0953 1048.16
913.83002 1191.4932 985.55688
960.72699 1344.6775 1014.8319
953.55914 1165.3748 957.47229
875.91711 1198.5001 967.88867
940.74487 1291.7074 995.11853
963.74127 1279.0559 953.74158
915.71582 1209.6388 970.76404
885.27893 1180.0657 1028.16
896.65894 1182.4036 968.16309
975.40063 1312.2544 958.07422
974.13318 1328.2946 958.48431
945.11255 1283.8003 973.16064
885.30109 1200.6586 1025.6667
928.30731 1188.1182 948.49561
908.30469 1199.1104 976.57788
957.20551 1167.6891 1045.7173
923.1756 1157.984 968.16296
873.74994 1178.147 1015.0168
952.81531 1282.6356 982.37549
898.36469 1146.8691 968.16309
894.61292 1197.2542 982.25897
927.60034 1168.4912 968.16302
877.57941 1197.9598 952.29944
877.80786 1178.3232 980.17932
934.69983 1239.6073 961.42334
963.10742 1344.7683 993.40692
959.70795 1321.1243 974.74371
860.93506 1195.5795 995.56274
912.20569 1184.8719 961.05762
969.23376 1365.0211 1019.5441
861.26648 1196.6718 977.76764
939.71985 1240.7526 971.54871
925.63544 1229.3336 997.30432
920.37427 1138.9576 1018.8892
946.38171 1255.0784 969.82556
903.20227 1188.6042 1045.85
983.42157 1321.8519 949.72791
912.91504 1190.0908 960.33551
925.30249 1257.6477 1003.7434
952.90521 1325.0544 1006.9481
973.55762 1317.8864 967.1579
874.31165 1188.5193 994.2348
876.20837 1194.969 1028.16
911.95435 1139.9811 1014.4543
867.20239 1202.8965 1047.6499
973.61017 1367.4807 1046.045
890.63202 1131.1355 1020.4872
975.97711 1363.5425 1018.196
901.04565 1159.7504 1028.16
896.95996 1196.3743 1041.1998
927.16547 1251.8759 1034.8264
956.19598 1320.4425 982.23834
870.3717 1162.6641 1022.4052
915.86365 1219.3278 978.44116
927.46027 1203.725 964.32983
943.10638 1284.1525 1018.121
881.50006 1134.9181 1027.3066
865.12012 1202.009 1034.3387
921.95361 1250.6949 1022.6801
919.4165 1187.3311 1024.1327
919.57642 1187.2626 1023.269
900.03589 1195.1393 948.76294
920.96777 1234.5439 1027.3472
971.54163 1330.9238 985.89532
912.62238 1172.4458 968.16296
947.02966 1279.5045 966.96387
916.55768 1235.4684 1032.709
938.02563 1178.8105 964.50214
870.19989 1161.7157 968.16309
937.39417 1253.5856 991.82849
973.47778 1310.0222 960.12164
863.93347 1205.4597 991.28967
941.30176 1265.0724 994.51648
934.31409 1223.2521 967.12421
957.71826 1168.6484 963.1947
978.10895 1370.8242 1023.5519
916.50092 1227.8295 1042.5712
941.23773 1177.25 1043.7971
871.38257 1163.03 984.35345
931.23016 1263.381 1042.5293
877.87646 1148.3031 1020.3031
953.8175 1264.0686 961.40503
933.03491 1230.0414 976.89929
881.73547 1201.8248 950.86359
908.88776 1191.7485 962.86536
947.7738 1296.9778 1021.7455
919.17023 1187.4292 1035.1498
926.03424 1151.5093 968.16296
934.51501 1277.484 1036.7014
969.67023 1362.5928 1035.8391
918.97852 1145.0664 968.7832
975.24841 1344.4102 991.09515
914.46741 1189.4292 1004.3669
953.06848 1319.517 1042.7966
916.20789 1227.5051 986.69781
975.30176 1365.1293 980.86584
913.02606 1164.9094 968.16302
928.88916 1183.0018 948.16309
961.10028 1335.9502 1045.6045
882.27527 1164.9163 1013.0042
934.99487 1180.2063 1006.6296
917.8634 1146.2848 972.53961
923.3866 1241.0765 1029.2761
873.84167 1145.1648 1021.3787
940.11993 1168.7583 968.16296
928.38928 1263.3606 998.27454
876.75067 1198.2291 957.81775
880.7915 1167.6023 988.95984
918.927 1236.3151 1044.6061
945.96802 1308.3998 1024.5487
970.81818 1366.354 999.98077
910.41956 1208.5067 980.72223
882.10388 1183.5903 1003.0767
945.34717 1158.3413 997.17792
970.29425 1358.2433 1046.4108
924.32275 1161.5391 983.39502
953.59119 1313.1416 1027.103
876.70837 1159.9282 968.16302
988.49805 1333.5433 949.26294
953.32294 1306.8435 975.71423
908.45789 1185.0305 1028.16
941.10547 1160.5055 1018.3599
907.72351 1178.4432 968.16309
940.4884 1172.0336 961.75739
909.32727 1218.8319 1029.7643
931.95874 1258.2133 1020.3274
959.81549 1315.851 970.67773
919.96912 1181.6283 955.18408
939.75146 1246.6344 977.30902
904.24762 1204.7299 1035.7601
879.09387 1197.9685 1046.6365
905.81531 1130.094 971.27045
867.78943 1206.3864 976.15485
927.02533 1259.7109 997.45825
920.9447 1185.053 1048.16
965.34229 1320.4312 991.0108
956.67773 1166.7014 1028.8162
876.70428 1178.2754 988.16364
870.87708 1205.3765 1021.2612
941.94623 1280.4651 976.78662
979.93591 1324.4895 951.8678
962.6106 1333.7958 980.18097
925.953 1211.6163 958.28564
915.63098 1183.452 1037.8699
938.71082 1172.9392 957.51941
938.34515 1274.8396 1023.2231
921.44763 1139.5056 969.96051
954.89398 1163.3639 1006.9169
977.44086 1350.7042 992.46503
945.86145 1166.8127 968.16309
943.6012 1238.578 960.70325
915.02112 1234.2258 1011.8665
873.82666 1145.5099 1006.9592
905.77173 1187.2634 968.16302
933.51343 1269.3877 1045.9213
962.20709 1337.7471 985.79376
995.71576 1351.2416 949.52911
944.54089 1158.7527 993.72546
918.83716 1142.1003 968.16309
955.11023 1164.5847 962.48816
911.3905 1224.6816 1006.3032
916.93823 1188.3784 1020.488
958.48413 1333.0474 1041.8065
993.78772 1359.7393 960.70294
955.22522 1316.0132 1024.4323
932.9184 1261.3878 1022.2961
972.89197 1311.4484 962.53467
920.41284 1244.9971 1031.896
966.89429 1305.3705 970.61737
872.89319 1178.1099 1027.2837
943.22009 1240.379 963.02319
923.09161 1225.1875 1000.1189
906.24432 1192.8094 953.86914
927.94067 1265.4558 1012.8147
929.28003 1248.521 1013.786
873.85516 1188.6672 972.28906
949.8125 1299.5801 976.90887
955.90833 1330.8999 1001.7744
990.61786 1337.4553 948.26971
879.81177 1185.689 978.96838
883.15228 1178.6533 1007.7368
922.12787 1186.625 960.53558
881.90198 1166.6727 983.59521
959.96326 1314.0072 969.0448
877.8501 1203.0957 1022.1206
899.55292 1196.9904 1013.4446
911.2179 1217.6003 989.8139
926.54694 1240.7806 1011.7036
910.68518 1208.5924 1024.2969
872.79688 1204.7485 948.71381
934.83655 1180.2788 1035.8708
878.72833 1186.6808 985.91394
896.5481 1196.5386 1035.0142
950.01306 1172.786 1014.7234
882.60608 1134.46 1014.8781
953.74805 1282.1604 979.18976
967.1626 1287.8723 954.25262
873.91309 1143.5287 991.64453
940.05237 1219.7422 949.3833
953.58704 1264.5708 962.3045
925.95764 1184.3672 1008.2338
972.5603 1362.5546 985.58319
860.82672 1195.2219 987.04529
983.354 1368.7372 980.60608
911.88477 1139.9902 1010.3303
953.87451 1310.1287 1018.0743
931.5672 1210.0487 961.14813
949.34003 1317.2538 1015.4174
879.09845 1152.6953 1027.7869
944.57611 1169.9512 955.77246
914.39429 1196.4675 989.85046
955.8985 1332.7821 1020.3671
870.42163 1205.5255 1008.7258
983.49023 1358.1732 984.08771
937.98254 1287.1943 1032.4332
987.54144 1338.2968 955.29773
860.80072 1195.1365 1010.4662
936.39734 1179.5605 989.6225
895.13257 1190.697 968.16309
942.79651 1243.8391 954.95129
984.95947 1339.7157 961.79871
908.53912 1196.7229 1010.5845
932.53271 1175.8395 1045.0168
957.12329 1266.2134 950.90558
871.71576 1158.3638 998.01233
964.65991 1329.019 1005.288
931.46997 1181.8287 1031.5828
939.36853 1262.2346 997.02612
965.27917 1355.3785 1020.5794
946.66309 1157.67 1012.5261
922.35101 1186.0397 951.13794
928.2323 1230.3645 964.82483
940.59985 1231.4342 960.7901
924.28333 1163.3217 997.34918
982.72101 1345.1448 956.80865
949.43494 1284.5687 994.35846
975.78217 1304.6537 949.02948
920.63464 1235.2148 1031.5758
938.1593 1271.7579 1017.2385
952.76978 1312.2682 1029.9866
894.43988 1197.2546 954.73608
976.82251 1344.0947 986.37341
945.41406 1303.1821 995.56
980.09729 1340.2035 957.36829
968.21515 1359.244 997.77087
915.25098 1139.5474 1008.2766
873.25159 1188.8629 1011.598
926.53998 1206.6188 969.14441
918.09998 1146.0262 1007.1766
916.71094 1188.4961 976.65131
910.54321 1222.3057 1004.8357
903.97485 1193.6858 1044.7596
913.79559 1214.825 1021.3727
930.83582 1172.9165 1028.16
971.1925 1329.5079 962.29279
889.07568 1199.2764 954.30603
946.0694 1161.7103 1028.16
956.88269 1169.2917 1047.1108
965.39465 1345.0828 1039.2421
921.90234 1140.1687 1011.4691
888.69257 1199.4091 948.3598
948.78094 1156.5894 979.03198
936.01953 1280.8584 996.21301
891.1366 1198.5386 1037.2351
891.98212 1130.5764 999.94568
917.02539 1139.3141 980.73035
887.52026 1199.8647 967.45056
951.43561 1321.5585 1024.8226
871.46753 1174.8237 979.31677
874.99194 1155.8483 1003.0137
983.33209 1362.5959 989.52875
968.52606 1314.8914 958.53351
982.53351 1355.4825 983.65662
919.25525 1244.5219 1012.9291
902.24097 1146.4215 968.16296
942.75177 1176.4799 963.91205
967.58832 1325.679 965.05768
986.87158 1361.6404 959.69482
937.50793 1279.1716 1047.0946
916.64636 1226.1132 983.57074
931.79297 1180.9741 1048.16
958.82086 1334.7654 994.0741
971.41711 1355.4629 1025.4783
881.43591 1150.8253 968.16302
922.64246 1252.4443 1021.8256
901.10016 1180.9484 1028.16
953.09686 1160.0005 969.71283
934.94513 1281.8176 1007.5705
934.5799 1163.8348 969.47552
937.53247 1261.9781 1002.9386
929.69128 1241.1399 969.20465
930.0827 1164.2957 1026.2941
933.17444 1249.2441 999.70764
886.06445 1138.2888 1028.16
949.50293 1316.3774 1005.1045
921.51483 1244.7222 1040.02
952.85425 1259.3969 959.41187
915.4325 1139.5236 975.49664
974.03174 1365.3483 1036.863
962.5304 1348.174 1025.9573
913.5069 1218.1162 1031.9724
969.95032 1358.5558 1046.2583
913.38336 1139.7931 1022.2974
893.93231 1143.8561 968.16296
966.56683 1308.4282 974.3457
882.11591 1161.5239 968.16302
932.99237 1277.2831 1008.9716
944.93628 1294.1508 1032.5464
987.25983 1349.028 965.28021
942.70959 1292.2571 987.85352
913.98157 1143.9082 968.16302
914.93549 1150.5127 978.44183
931.06268 1261.8557 1037.2479
959.16284 1327.012 1028.2034
903.815 1188.3503 1038.8702
924.61908 1161.1167 983.12634
912.66571 1211.8347 978.62708
900.19299 1189.8186 956.97559
959.78735 1307.9713 965.70642
914.36047 1228.621 996.28064
979.51282 1365.5813 972.29321
970.32227 1367.5952 1012.1209
920.65326 1190.8993 967.71246
897.06476 1169.4742 1028.16
914.95074 1224.3571 1044.121
965.12939 1320.2172 991.40369
917.92456 1187.9695 1010.1255
915.79297 1183.3849 1029.8069
905.73706 1181.9254 968.16296
920.7785 1235.2504 1030.5853
969.88373 1362.0696 1038.5923
948.39478 1297.623 1019.7146
915.78278 1217.5759 1016.9312
945.08984 1299.1322 1045.1969
918.67993 1139.0963 990.78308
979.8197 1352.7598 963.64612
956.89612 1321.3713 1027.7612
878.47675 1178.3524 978.68286
913.71808 1213.4296 1018.6346
879.23108 1178.3851 993.84039
990.44824 1345.1492 955.1571
921.88202 1197.4299 971.17981
977.80176 1309.3997 950.66626
882.04749 1158.1433 1028.1599
973.44214 1334.4001 984.63635
916.17676 1183.9568 1046.8362
947.31616 1174.158 954.63452
978.22302 1370.8655 1006.5961
879.37762 1168.6879 986.86823
933.6496 1273.7813 993.46094
988.94788 1366.4211 961.90527
958.599 1285.2739 970.54962
905.44666 1140.1733 1028.16
905.43854 1137.8309 1006.9971
939.82977 1172.3691 966.97644
890.76093 1193.2976 962.6145
914.24982 1189.4951 953.04102
902.24213 1201.2446 1001.1757
901.93262 1201.2319 1003.5671
909.4314 1218.3717 1032.4268
917.43524 1146.7524 998.14795
965.742 1331.1147 1004.446
877.91187 1203.0756 1037.2018
919.95972 1151.8942 977.08539
955.9248 1165.2927 978.5968
973.20227 1370.7183 996.66455
972.8822 1307.3643 959.08521
974.77698 1354.8708 1007.8386
863.44385 1203.8479 959.13708
917.99292 1209.1541 994.97729
899.50415 1190.0726 959.64673
877.88501 1178.3267 975.62073
902.83295 1127.3607 984.04541
910.64301 1191.026 1002.0058
943.29431 1296.8594 1040.9077
931.85144 1263.9919 1038.2542
942.57684 1176.5687 1037.1063
908.41187 1134.1642 995.99554
882.33801 1165.4861 996.59656
941.76129 1234.9172 952.69763
875.76624 1198.5491 960.76721
947.0484 1265.7637 959.73157
866.85144 1190.938 1019.9024
900.52222 1166.9503 968.16309
942.54474 1159.7712 987.69312
907.06903 1131.243 1024.8774
875.7135 1155.2942 992.80334
874.22852 1156.4344 1013.6001
992.37817 1348.1421 953.74158
927.33905 1255.3303 988.05792
873.65497 1173.0813 1002.8145
936.21204 1274.7463 1039.2939
938.96228 1178.3834 948.22308
939.92334 1293.855 1007.7169
925.50543 1252.8398 1043.2751
884.00366 1198.7811 948.16309
876.25488 1137.0906 997.5517
958.28937 1338.5171 1020.6548
954.68323 1170.4105 1034.447
942.01617 1269.4209 968.19336
928.22601 1216.0526 974.52667
877.65405 1148.2936 1006.1433
939.0531 1280.9995 1036.7413
971.65082 1370.0706 1026.5096
875.03467 1188.2848 1022.019
881.93768 1151.2242 1028.16
960.01416 1339.8623 998.62878
970.20233 1341.6638 1004.124
955.42969 1164.4219 958.29468
951.61389 1157.2253 1023.5872
959.01306 1319.5945 1012.6907
941.99109 1284.6876 980.72717
881.77893 1178.4958 1003.7241
891.99329 1193.0681 949.95178
959.56409 1323.9363 1018.2377
932.55859 1164.1853 971.66394
953.00684 1310.6271 1024.3352
994.65344 1355.0293 954.9259
913.74683 1189.677 1032.5487
978.80145 1367.8792 975.27222
893.55493 1148.9695 968.16309
969.08289 1364.7444 1013.8228
922.73224 1230.0316 973.29413
990.46228 1347.5142 951.1955
925.33691 1164.3165 976.23486
910.42883 1203.587 1014.892
878.64117 1202.8369 1035.5063
910.24835 1218.9463 1036.5591
943.46918 1159.2994 979.73578
926.0022 1184.3458 1025.1818
949.40503 1316.9346 1022.2061
929.70197 1177.1438 1037.6141
937.45734 1284.7014 1036.3657
966.77899 1355.5059 1036.2438
957.80524 1309.8407 969.81909
969.63275 1366.2625 1016.1952
972.01636 1332.4486 962.79694
884.83624 1133.5363 1017.1403
922.90277 1194.9059 966.3772
962.71771 1319.6521 998.59753
993.30469 1355.8386 958.37982
960.26917 1333.9884 1045.9768
879.68359 1163.3969 1011.9442
863.84802 1205.1785 997.13989
939.37073 1178.1912 977.7774
891.65601 1130.7114 979.57947
900.56641 1167.9241 1028.16
880.54553 1178.4423 982.25348
929.73303 1208.8053 963.94861
913.84717 1231.5286 1014.2776
929.71301 1233.6831 964.69244
884.64783 1199.036 948.16296
895.86102 1196.7839 1039.8752
982.26196 1355.1208 961.78912
910.64233 1218.0211 1041.0658
917.10522 1183.2592 1046.547
882.3775 1183.3398 994.58661
936.7049 1208.1239 948.42285
890.87915 1198.6295 1007.3041
941.22083 1266.104 996.20337
924.36212 1179.6042 1036.3611
989.87805 1362.6346 972.33875
898.16583 1168.3733 968.16309
958.94952 1340.2632 1019.1651
939.70972 1215.6753 949.1958
924.03247 1185.2809 958.16388
916.90845 1152.2773 990.91321
906.18445 1140.2319 994.86066
943.89691 1175.8972 1014.0066
924.26685 1256.4414 1010.8926
922.51685 1252.4349 1013.621
939.78058 1293.668 1022.787
896.35876 1175.2378 1028.16
926.57648 1165.3895 968.16302
875.31049 1171.8103 997.81812
958.20276 1312.0743 1003.2189
965.83667 1341.876 1025.1404
916.23779 1148.0608 972.6615
928.22424 1183.3245 980.32239
925.10315 1164.2002 990.19324
912.11481 1189.291 948.16302
971.36646 1341.4971 999.97705
955.1994 1170.1478 1046.6937
905.29236 1189.1035 948.89984
982.02258 1327.9869 951.42627
938.34302 1263.7686 1002.6947
884.58716 1162.8491 968.16296
953.41724 1282.3118 960.28027
902.83044 1196.236 988.16772
935.04315 1180.1841 1018.125
880.31555 1202.2893 1037.5229
901.91711 1126.5212 1008.6084
910.18744 1150.1082 1028.16
915.27374 1151.4059 1025.546
906.11389 1165.4368 968.16309
948.81824 1257.5927 966.4906
961.12878 1278.4757 951.68195
941.06213 1296.9109 1010.5325
912.73999 1226.1428 999.81519
863.93872 1205.476 1045.1399
916.4198 1223.8479 1028.1367
950.55481 1295.7974 1006.6672
927.32336 1158.1633 1025.5751
953.83557 1318.5527 1046.7748
920.99463 1248.7107 1019.1786
950.83289 1310.647 1042.2231
934.29919 1255.7754 971.75964
916.12439 1218.6978 977.28558
929.57208 1182.7037 985.13538
902.12061 1126.7079 981.86194
905.98199 1130.2468 993.30664
912.8501 1229.1497 1015.0784
896.35913 1169.7339 1028.16
988.89496 1366.442 974.82471
887.14294 1196.4988 948.41113
933.26416 1262.7473 979.86316
943.96033 1246.5322 967.11646
873.86249 1144.6884 1017.4524
974.34375 1365.6368 1034.8771
911.00635 1201.9872 1009.4376
871.48517 1174.8022 1003.3171
912.77026 1210.1476 976.84546
921.19293 1151.7319 974.67505
925.13611 1238.7699 975.6897
954.01666 1255.1807 953.32983
892.05115 1198.2034 1034.6805
887.36591 1142.8604 968.16296
898.53455 1137.9338 968.16309
962.99762 1343.5702 991.52362
961.27765 1283.9895 963.03754
955.38635 1170.0527 1026.632
941.96423 1290.2983 987.63483
928.91669 1177.5055 950.27631
938.07227 1270.7377 1015.6848
924.30878 1179.6287 1029.0652
880.89331 1178.4574 994.12646
914.49695 1224.2367 1047.2264
987.76917 1342.9286 958.7655
948.51996 1247.4539 958.15533
931.11633 1164.2496 1014.7466
934.51593 1173.3198 1028.16
863.17987 1202.9791 1029.683
910.4397 1216.897 1042.489
917.85254 1139.2052 994.09674
927.03357 1164.4319 1010.3312
910.0907 1208.3295 1027.4714
975.95709 1308.8212 954.01617
903.89636 1198.0255 1047.1061
925.77271 1225.6779 965.49469
935.28918 1180.0708 958.55884
970.02203 1359.8385 990.21631
952.7804 1308.6365 1020.7195
941.39038 1297.6563 1009.9594
953.55981 1160.8671 992.61707
936.32928 1272.5863 1030.01
932.24915 1228.5142 977.30029
931.21716 1151.3584 986.08276
933.01318 1218.6433 965.74774
964.04688 1352.6906 1014.9282
909.04846 1216.6029 1034.9266
927.16296 1258.0519 1040.7285
894.06238 1197.4589 1013.6466
881.95917 1164.2552 978.20386
890.70288 1167.1722 968.16309
874.12927 1138.5735 997.58398
978.05237 1370.9374 996.81818
957.2002 1272.167 961.34717
936.88666 1177.3488 1048.16
898.08459 1195.9792 1001.1033
877.89502 1141.1815 1028.16
908.32788 1140.4581 1012.6811
907.48987 1203.6898 1032.3354
918.99542 1145.048 976.18805
914.78516 1224.3606 1047.4946
899.20685 1127.584 970.49731
944.27362 1236.0514 951.15326
921.42426 1142.3943 993.02106
911.73376 1207.9805 977.14581
978.41785 1366.3433 974.82031
887.59735 1132.3926 997.77246
939.95349 1177.9032 951.6568
977.12738 1369.014 1024.9427
860.24426 1193.3021 1026.0129
924.75708 1210.8451 959.19556
920.86029 1151.7756 1003.6335
968.68164 1355.2813 988.39935
929.14771 1164.3374 986.59106
945.02869 1305.9514 1025.76
947.94458 1311.3484 1031.9501
934.45361 1269.5013 1034.9825
956.00012 1256.6677 950.56628
895.90216 1144.144 968.16296
971.0437 1354.0995 980.12634
882.32172 1165.1642 980.72473
945.65393 1175.0035 957.39905
934.83459 1174.7788 1030.755
961.80615 1346.5272 1006.8738
906.41571 1212.9999 1008.0374
917.3031 1229.3237 1040.2694
932.03101 1172.066 1028.16
935.07263 1163.5835 992.51343
927.84119 1157.5979 1005.2124
942.87183 1176.4187 1033.7742
961.06525 1343.2751 1030.9209
870.58447 1162.7964 1003.0238
966.94055 1352.9406 1042.8353
947.12738 1311.806 1013.866
927.89679 1237.1636 1000.6677
944.716 1267.5122 987.42285
915.89331 1203.2126 993.8349
942.10175 1221.3613 949.12274
924.19385 1179.6818 955.96216
902.41309 1126.9758 990.32056
905.25513 1210.6581 1020.1216
918.26843 1145.8423 973.6178
924.61249 1244.4906 1030.5413
911.48755 1225.1399 1024.6725
955.37225 1278.9814 972.00018
914.01709 1225.8376 992.38318
946.06616 1258.0146 973.45355
923.70911 1185.4033 986.17822
913.02399 1190.0458 991.38129
945.52136 1242.0562 952.06677
984.40503 1368.3025 973.79675
860.23944 1193.2859 1013.2878
967.94025 1362.0427 1014.4832
872.62671 1202.7229 948.16302
905.28668 1210.8792 1014.7574
955.80701 1329.8132 998.90106
892.74316 1197.9482 1030.5389
914.9502 1183.7341 1030.4135
955.30817 1323.818 1045.0881
909.48474 1185.9999 1039.8353
892.72229 1192.5741 1034.8281
971.599 1300.4504 950.72449
884.41425 1181.0195 994.67365
942.26001 1298.59 1028.691
915.18823 1234.4037 1009.7868
937.46924 1287.8475 1007.2129
918.44678 1145.6473 988.43799
991.11188 1365.0599 971.80273
880.22534 1148.8746 979.24377
940.48413 1292.1082 1036.0729
929.09064 1256.0122 1032.968
908.45154 1134.0537 1003.9445
917.83667 1216.0477 1005.4127
900.55664 1194.9471 951.4425
948.42017 1173.5964 977.12683
947.06165 1157.4667 1009.9279
922.96588 1232.719 1012.7202
935.17542 1213.1932 950.88049
906.92297 1168.8263 968.16296
874.25684 1137.9182 997.21143
950.47827 1285.7782 965.86237
873.8949 1143.9456 996.91357
906.82031 1209.9174 1038.4666
933.58484 1269.4502 1045.0063
873.21521 1178.1238 1002.3989
956.20947 1299.4017 992.34387
868.22943 1190.4912 1018.877
971.49426 1319.4126 973.46252
925.63879 1164.4128 989.00378
872.57544 1204.821 967.82092
914.81384 1226.9269 990.8855
948.74677 1315.8 1017.6156
974.58771 1299.0536 948.51593
871.81152 1189.3297 973.48859
874.90662 1155.9138 974.38239
969.4259 1308.6204 967.8446
985.61353 1349.8137 969.89209
881.74915 1183.9152 975.41003
867.00696 1206.6423 954.34943
900.96259 1191.2224 1047.7456
908.39288 1200.1349 1017.6975
938.30243 1288.4746 1030.6761
873.78723 1156.7732 976.48132
907.80457 1210.9951 992.66357
922.03101 1155.3942 1028.16
907.38013 1210.6449 993.87433
897.63049 1131.2019 1028.16
927.68799 1157.691 968.16302
940.89301 1177.4253 949.94775
901.5354 1126.6194 991.86823
920.51428 1226.3479 974.62091
931.92236 1258.9236 979.31677
863.44989 1193.3453 1028.16
994.45404 1364.1409 954.36389
915.48181 1190.6104 960.16809
936.86853 1241.6738 979.47583
961.13159 1331.769 1028.2317
992.87903 1352.3392 950.90808
914.72083 1225.4318 988.89075
870.72668 1189.6814 975.86914
891.68945 1198.3315 982.52832
907.55292 1135.3295 1014.5153
951.49231 1272.3372 957.88196
948.4895 1294.5273 975.13025
957.96936 1324.6211 1029.4292
915.60413 1183.4631 950.25995
920.8783 1142.9908 1019.6422
976.00928 1335.1085 959.53125
952.37152 1158.6433 1001.3268
929.49579 1155.7909 1021.9673
932.68701 1271.3962 993.33069
874.12317 1138.7123 972.71814
964.02612 1344.5059 1045.7743
913.4201 1230.2789 1021.1354
913.28107 1222.974 990.43207
897.45319 1196.2091 1031.9645
920.69977 1181.2916 1030.4514
874.3584 1156.3347 990.12354
953.28455 1321.5291 1039.686
918.92249 1236.9601 991.09045
883.89563 1201.1183 994.75012
877.06946 1136.7532 997.00214
871.16467 1176.9304 997.22858
877.099 1198.116 1030.6385
881.52869 1167.0364 1010.9518
863.27649 1203.297 982.69861
989.04749 1342.9519 956.16345
927.28284 1261.991 1030.4012
883.71179 1178.9646 986.7301
924.87793 1254.5568 997.52686
931.10638 1181.9971 987.51886
937.94122 1254.6127 991.44434
944.42706 1300.9484 995.85388
942.58533 1176.5645 1007.4617
941.15283 1277.9078 976.15344
948.37585 1240.4443 952.36523
916.18176 1209.8838 970.1532
912.82233 1229.1104 1016.9911
878.05072 1203.03 985.86975
981.17303 1355.8846 963.56421
924.57867 1160.1731 1028.16
947.22015 1249.7642 953.26819
945.2594 1285.0361 1010.1865
915.34082 1189.0398 1023.5958
921.14081 1235.6987 1029.3988
979.14526 1370.4824 990.28564
977.19 1315.0969 956.81909
891.64557 1192.9712 1028.3958
922.41589 1247.7797 1037.9796
927.42285 1237.1575 1002.3344
937.05286 1162.5731 1003.46
927.55402 1185.2081 948.27283
933.75409 1175.2766 1036.2944
954.47693 1292.8403 989.42065
907.15674 1209.9028 993.51038
977.30884 1350.6887 992.88336
951.38959 1156.8058 971.82605
915.96802 1234.1775 1000.5547
904.99475 1209.9835 1020.9031
897.3446 1196.252 1003.4899
876.44904 1187.8263 1025.2161
930.70215 1182.1826 1023.613
893.2948 1191.2271 968.16296
952.84589 1257.066 957.44904
900.90247 1178.5676 968.16296
871.37854 1199.9751 955.07178
982.92694 1368.9172 997.02637
951.18469 1304.6348 1020.3406
918.30548 1139.1456 1005.3026
912.88025 1139.8594 1024.3326
944.84003 1281.9615 1006.6035
944.35596 1250.4053 970.03156
888.82007 1199.3867 993.92224
930.88623 1214.9448 967.09448
873.98859 1141.7974 1023.7537
974.26337 1362.8761 1026.8602
917.8208 1139.2095 1001.4269
930.96234 1209.6884 962.08252
943.16626 1226.5984 949.20361
874.14673 1138.1735 1001.4911
863.46045 1203.9026 971.54858
931.87439 1205.7666 956.74109
876.26257 1148.2336 999.34424
915.17151 1198.9177 964.80811
863.83496 1202.4266 1044.2982
943.07153 1285.4675 1021.3074
930.48126 1249.2529 973.70203
957.0072 1323.5792 1033.7379
870.99487 1176.0065 998.44019
953.14996 1248.2767 949.32239
951.23169 1172.1663 1015.2167
918.58228 1175.2313 968.16309
971.54553 1351.9731 976.83459
951.0293 1299.3466 1010.9032
884.23621 1181.4716 983.69397
882.51392 1149.7725 968.16302
948.62146 1315.5148 1015.2988
871.72729 1189.3571 997.91711
952.19983 1323.7471 1021.4938
942.91772 1297.2751 995.784
973.11469 1323.3359 973.47375
980.05353 1349.8051 984.00671
969.79047 1346.3679 1014.1064
916.43774 1212.4727 971.52887
950.65198 1172.4612 1038.4935
971.46948 1358.4523 1033.7805
945.48364 1252.7644 969.67371
903.54944 1190.0321 1047.6138
873.62659 1194.6238 1028.16
960.32458 1284.1951 965.38757
938.50372 1264.5513 970.78973
929.40479 1255.7023 1029.5453
906.02582 1187.4338 960.38977
932.32635 1175.9344 1028.7688
882.21606 1183.4877 979.46631
928.13025 1221.1155 980.05835
966.54456 1312.9563 959.82971
879.82507 1197.23 1042.1589
966.54169 1280.3596 948.47778
932.82727 1266.5405 1039.0956
943.97174 1289.1154 1025.0063
957.10596 1273.8292 953.336
916.3125 1147.979 1002.0686
947.57996 1261.1151 957.11829
904.34454 1185.3083 968.16302
905.11304 1209.5392 1026.0894
915.09296 1221.9086 1031.839
939.37042 1218.6802 952.34644
930.51282 1243.0685 969.16382
963.85419 1338.6573 981.9762
875.9931 1137.199 1017.179
923.39337 1201.6392 971.75146
955.74719 1328.4414 1037.5377
930.88757 1245.109 1001.7288
923.85693 1179.837 962.25214
974.61646 1349.2769 999.90198
905.83618 1200.6541 984.36816
918.1886 1241.2849 1024.8893
934.96619 1242.3928 985.59607
942.54688 1176.5841 1038.6995
900.57611 1196.554 999.1311
900.51239 1171.2504 1028.16
928.18597 1235.0757 967.60693
887.62262 1132.3821 1010.7736
886.06079 1200.4012 1038.1305
968.79517 1332.576 996.2124
927.31989 1251.2101 1031.0522
902.10852 1194.3896 969.97705
900.96143 1195.376 1039.3842
949.28314 1156.3333 1014.3943
929.70886 1257.1954 1031.8441
874.47168 1188.4673 1000.8188
929.34326 1262.7236 992.17792
886.93207 1184.4131 968.16302
936.21753 1285.5964 1016.0446
931.72827 1176.2101 954.9375
940.16724 1250.7518 960.44781
948.16785 1308.1221 992.1322
952.82935 1286.1901 986.39368
872.59698 1204.814 972.56653
900.28876 1127.1357 973.27924
977.54285 1371.1479 996.9613
937.69269 1275.6323 1029.3267
911.80835 1211.5986 1025.0448
947.83942 1275.0271 963.34204
913.20007 1189.9265 1021.4775
942.85846 1224.958 950.58044
918.29968 1139.1464 1001.4775
898.79431 1183.6558 1028.16
936.71326 1238.7837 976.74994
916.39417 1212.8093 971.83661
909.89001 1221.4165 1008.2629
875.18848 1203.9663 995.10852
952.53339 1165.8973 967.34796
965.98199 1356.6735 1024.4359
874.49896 1193.436 968.16309
931.68518 1273.9298 1024.4742
934.55408 1163.8479 968.42816
952.8197 1303.1405 1009.9736
920.479 1234.891 1031.7646
902.38892 1188.9415 962.07593
883.32227 1201.3059 1038.6758
955.08624 1170.2054 1047.8131
977.59387 1371.123 1022.7403
913.49408 1218.678 983.78894
860.8493 1195.2966 1010.8676
918.88965 1219.8372 1007.4787
920.95709 1142.9048 1022.5346
984.80383 1349.6676 971.64429
930.70306 1256.4954 979.78137
933.85742 1237.1177 982.50134
951.05011 1270.0171 973.42462
918.59192 1227.6714 980.12024
939.89331 1268.312 1003.8669
934.65051 1265.5547 1022.2749
937.43542 1174.9877 948.88495
930.78772 1227.8394 980.39282
944.7113 1294.3145 1035.3494
906.12433 1136.8944 1004.4645
910.17426 1212.6083 986.22485
974.27722 1362.2089 980.42529
985.30151 1359.02 960.22565
933.13965 1181.0605 1022.1712
983.16412 1334.6818 961.20435
871.44733 1190.1433 1028.16
904.17487 1207.5942 1008.0717
891.17725 1130.9098 973.86389
973.64844 1313.3007 962.55688
944.4563 1297.2333 1045.9635
874.37183 1188.4996 1001.6345
863.63251 1204.4672 1043.3989
950.43256 1305.0923 980.81128
886.43817 1132.8727 986.41052
903.19482 1127.6924 974.13696
920.22705 1186.9832 1001.0909
866.86816 1201.4409 955.79816
962.90521 1312.2177 963.81464
932.10492 1254.4303 1012.1527
910.6748 1217.5524 1042.3041
925.97742 1247.0975 981.82092
880.14539 1185.3834 1004.0955
977.46259 1333.8979 957.39203
878.24249 1178.342 1010.2472
918.23755 1224.9473 1020.0099
919.67352 1167.8579 1028.16
886.82794 1200.1193 974.77051
883.77344 1182.0618 990.41638
956.14172 1169.6686 1022.5823
951.30762 1172.1276 1027.0496
994.95544 1352.9042 952.50104
868.52991 1206.1443 1038.6171
928.64984 1212.5046 969.95233
975.94244 1369.9302 984.52808
913.77258 1225.5685 992.96051
873.80457 1146.2615 993.48059
956.05371 1165.532 957.81744
956.51147 1166.3872 950.38995
949.75885 1167.3108 952.23047
874.31268 1147.5397 1000.3605
942.17535 1171.3594 1046.3253
972.23462 1338.2311 965.82764
936.02911 1217.3096 958.09668
948.55908 1172.1886 1048.16
993.07684 1363.6223 965.8139
919.98865 1181.6194 1031.3312
988.41626 1366.6404 962.24805
932.37238 1264.2294 1034.0378
956.26196 1332.2795 1028.9082
861.75397 1198.2791 986.95367
932.68909 1181.2683 963.13647
961.59491 1285.4707 963.70807
869.24744 1190.1611 996.70117
943.27441 1159.3989 973.66766
924.70117 1215.7561 961.56195
967.25366 1295.0808 952.23706
914.13025 1157.2008 968.16302
940.62744 1286.2429 1043.4388
928.53369 1228.682 987.68994
981.25732 1366.1792 1001.1398
915.00208 1203.998 968.06732
955.97571 1165.3879 976.43976
952.50812 1307.8678 1020.4382
868.13715 1201.0284 960.01477
943.49988 1242.1655 964.06482
874.00903 1141.3275 1022.8198
864.21875 1206.3988 1029.978
905.63269 1210.4883 1027.391
915.58221 1227.9805 1045.0974
972.07324 1371.7272 1011.0057
925.39807 1189.1604 950.74988
920.29785 1151.8496 986.98279
926.34259 1246.1917 1023.9362
884.34406 1179.8119 1025.3074
950.35364 1282.366 988.83142
930.68378 1195.104 948.83466
958.10968 1285.6893 972.09631
902.52112 1195.3906 988.02216
986.51221 1356.5072 957.74689
927.02045 1158.4941 1015.0107
875.63855 1203.8191 987.97009
935.18671 1237.72 979.59131
889.05133 1199.277 950.43585
969.3877 1345.1296 1013.6295
973.13666 1372.9689 1009.155
944.09338 1171.4015 1047.2344
916.0495 1235.8483 1005.9414
914.49182 1183.9243 956.24921
920.00879 1138.9348 996.53223
861.15735 1196.3121 1010.2429
968.83368 1346.4827 1018.6171
997.00134 1357.4575 952.17322
893.61688 1165.1312 1028.16
952.5072 1276.0868 975.89709
914.98315 1199.4524 965.34631
896.42072 1177.9517 968.16302
920.62183 1186.6604 1048.16
953.11053 1278.9304 977.35718
986.76166 1353.9683 956.47827
908.08777 1186.5791 960.11737
893.96729 1171.787 1028.16
906.42688 1190.224 948.16309
931.94348 1164.2126 971.29401
949.68829 1172.9513 957.16119
915.45917 1151.6387 1018.0797
873.17432 1163.1075 983.78137
905.33447 1138.2002 1000.418
873.80511 1146.0015 1012.6273
934.20422 1268.8931 1034.9523
921.56079 1247.616 1032.408
891.94086 1198.2104 960.23804
993.53821 1364.522 956.40833
931.28174 1273.6191 1014.3118
930.90833 1266.3147 991.84167
900.10846 1152.3052 968.16302
921.85358 1140.0664 1021.158
921.7323 1235.7139 980.61133
952.40247 1158.7012 1010.5853
945.10498 1244.0679 962.28308
942.35596 1293.335 1043.5409
969.14209 1302.6703 962.76843
916.46924 1139.3872 1019.1558
949.61316 1308.0918 1044.5583
990.44019 1363.5912 956.75415
950.42352 1243.782 949.11206
926.93506 1252.1099 1038.1232
892.93658 1192.4951 955.6687
894.15747 1154.8198 968.16296
883.94556 1179.1831 1004.6418
890.34131 1193.4524 963.53912
966.78583 1359.2073 1018.6913
925.10565 1184.7574 1046.4591
920.02515 1181.6025 954.03064
908.65955 1211.813 990.42578
885.95166 1153.5927 1028.16
976.65845 1371.5088 1016.6865
949.50281 1313.988 1035.7585
913.30182 1184.4175 964.48273
969.47522 1302.7543 962.15631
927.02441 1242.3014 974.80884
967.15369 1345.6531 1026.6484
862.18732 1199.7075 980.53497
933.74866 1265.8252 1028.5322
943.89929 1175.8961 1011.5195
928.97119 1263.2683 1038.7603
887.16687 1146.7544 968.16309
880.46704 1151.551 981.07806
923.3623 1208.3528 978.70178
931.24023 1164.2441 1008.5058
929.92017 1253.5415 1020.8934
942.53125 1285.6595 980.42596
960.00574 1341.6566 1004.9407
968.59558 1311.2998 956.90588
912.32111 1184.8241 1030.1653
924.82446 1151.2542 987.0047
919.67932 1138.965 995.96783
962.68744 1282.5723 951.78387
924.01379 1185.261 1030.2212
982.17877 1346.1089 957.76672
972.98938 1359.5815 1026.2999
983.19135 1355.4644 981.8374
911.72137 1224.8665 1028.7134
864.42822 1207.0886 962.41443
876.31104 1198.3719 951.71643
972.07031 1366.9783 1039.3486
876.22083 1187.9001 988.66718
978.71332 1370.6624 993.13538
865.63879 1207.0898 996.97052
924.50787 1193.0248 952.61603
909.09216 1218.4849 1003.4683
976.49011 1331.5791 973.56494
933.47418 1204.4945 949.5553
969.03461 1343.9749 1013.0889
964.76508 1353.4423 1026.5718
956.96857 1282.1818 956.50452
975.03589 1331.2864 958.85718
941.08429 1177.328 1017.3071
955.38062 1329.4971 1001.3034
913.28937 1222.0544 989.00647
925.28363 1151.1938 1013.0353
877.45813 1170.1615 972.88898
927.30707 1233.885 998.02612
948.43292 1311.5703 997.86658
943.39075 1159.3396 977.71368
939.57227 1225.4746 957.77759
881.69861 1183.9614 984.80121
944.82898 1175.4231 956.65808
908.32361 1134.3726 990.16284
916.74475 1143.1144 968.16296
922.72107 1206.0876 977.92462
870.24713 1162.5752 991.37799
879.34491 1178.3901 976.37531
950.33118 1269.4485 957.84521
877.29077 1163.2904 1022.2775
916.68945 1215.4385 1008.9912
873.77802 1163.1343 976.59222
923.44385 1151.4358 1017.2227
872.14441 1163.0618 1017.7415
878.4668 1171.9115 1028.16
906.78101 1153.7405 1028.16
893.80853 1197.5509 1036.7838
976.81665 1313.3423 956.09406
920.41064 1143.5018 1004.6884
927.88605 1259.9419 993.57117
925.75134 1221.6393 987.28589
929.77838 1244.9509 971.79565
883.98572 1201.0887 1042.0419
987.15271 1341.5579 951.7771
892.18481 1164.7504 968.16302
956.78784 1326.4478 988.18781
865.37299 1196.5255 1028.16
954.31897 1319.3676 1043.8513
956.93433 1169.2654 968.27966
892.65234 1130.2988 997.30371
882.31061 1165.7584 1026.6545
895.22803 1197.0303 1012.1252
935.19543 1222.0107 963.96558
885.96466 1200.4366 1009.7553
962.88281 1288.7552 963.87244
929.17291 1245.9858 1009.6992
945.2323 1158.4 1015.5725
928.61932 1248.1938 1016.2172
907.4165 1192.3468 964.46082
975.5144 1328.5907 957.13245
931.94531 1269.6909 1040.5085
907.30945 1131.4634 1009.2924
898.32202 1168.5509 968.16302
958.50928 1277.6025 953.4679
969.59058 1351.5602 981.08142
955.45508 1164.4139 1029.0229
989.82776 1351.9635 953.07227
915.62909 1234.2773 1028.8091
937.64758 1224.0488 952.3772
895.88745 1196.7668 1044.0079
934.41229 1257.0854 1007.0999
876.4837 1163.2545 984.59045
927.05939 1178.3615 960.53375
896.25824 1143.9781 968.16302
908.927 1191.7146 1009.9081
937.67682 1270.9768 1017.9743
929.19135 1164.3354 998.02185
920.4903 1142.083 968.16302
953.82886 1318.6417 1047.6555
915.09631 1151.0956 981.28619
864.39508 1206.9792 989.71655
873.80054 1146.1063 1002.9382
969.98914 1332.4 991.99371
908.65015 1158.8328 968.16302
905.31793 1193.1753 1023.8269
954.18024 1274.8474 970.78308
935.28247 1209.3942 952.82678
927.47821 1154.0555 968.16309
928.0697 1258.3679 1044.6389
931.75262 1176.199 1038.3596
912.23499 1190.3511 954.46387
953.42651 1256.6882 950.72607
923.64417 1222.52 994.61517
971.03912 1368.7739 1006.7938
952.63483 1310.2764 1025.7018
977.78113 1351.6663 965.85352
902.73438 1194.1448 963.49805
866.91357 1205.377 948.16309
927.63483 1186.6713 949.31726
973.43518 1345.0278 997.9646
944.8147 1296.844 1047.3634
947.42932 1312.2469 1010.3197
927.33093 1248.3461 1023.3658
924.79742 1163.9846 1017.2958
951.6947 1311.941 1038.7444
861.41498 1197.1614 1011.4182
936.44659 1283.5387 1032.2715
932.53497 1230.4375 959.56958
948.80072 1298.3689 978.12323
880.54419 1202.2145 1012.4493
968.93341 1354.4492 1042.8242
953.54059 1160.8311 1009.7242
899.05078 1127.6484 1003.9827
901.24536 1198.5276 1000.2257
978.53088 1350.8655 964.34808
937.7583 1177.3346 1048.16
926.26343 1259.9595 1028.7717
894.2027 1129.6566 977.17883
974.36261 1343.8401 966.09961
874.10303 1139.175 972.4245
880.16968 1148.5374 968.16302
902.82031 1193.0641 1048.16
927.41199 1257.6169 1042.8978
880.92792 1184.667 984.6261
922.34943 1186.0293 985.54993
912.59229 1191.2583 964.01501
972.12567 1369.6007 1032.0809
892.73047 1192.571 1038.2878
949.52808 1173.0327 1024.958
877.23914 1187.5701 972.57196
961.03192 1278.4313 958.81018
904.86554 1129.2236 973.04675
952.50562 1250.901 949.69592
905.65393 1137.4403 1024.6692
918.00226 1182.4689 1044.4626
996.17108 1351.2971 948.31848
881.48114 1201.908 1020.3085
878.96442 1169.0051 1014.6014
941.67493 1297.1931 1003.9885
927.6413 1255.21 1045.9136
939.92047 1291.7305 999.72498
979.71112 1370.2491 993.91125
902.58722 1143.1351 968.16302
928.60107 1183.151 995.05078
942.21326 1171.1549 1043.7368
934.82172 1265.7769 979.203
918.04742 1218.8918 973.42957
915.61743 1232.2068 1035.6801
939.56555 1282.8259 1039.2755
921.64197 1239.9019 1040.8065
941.7168 1229.6042 956.87061
869.59106 1160.5092 988.19696
939.05865 1172.762 966.50049
914.92517 1139.5903 1007.4607
949.28357 1240.7561 949.03772
945.71741 1174.9712 1003.252
864.93744 1191.5585 976.4682
933.88171 1263.7638 1022.431
891.12494 1130.9314 1021.031
955.26727 1298.7698 994.55579
895.30676 1191.6208 963.27625
935.42743 1268.1102 1023.984
964.43323 1323.5868 998.32031
946.00262 1174.8262 1006.7732
907.6521 1135.2207 1011.986
981.16235 1368.0461 971.16736
967.36206 1333.9874 970.6167
973.63037 1316.379 965.49286
944.91016 1158.5643 1010.9081
912.56769 1206.8031 974.3349
913.01459 1200.2324 999.20276
913.72583 1214.5652 1021.1658
956.466 1166.3054 1023.6151
974.81219 1355.4241 973.17694
877.49573 1203.2115 1045.3613
909.62097 1216.885 1037.99
920.99896 1186.6479 1046.7677
926.03522 1234.309 970.65466
871.27661 1189.5032 984.19708
935.90326 1206.8679 948.60736
875.7713 1148.2126 994.5835
947.51453 1307.2388 993.52808
902.99152 1195.436 1043.7185
873.80164 1146.0817 1018.4683
932.29004 1245.9388 998.08545
880.10535 1200.719 948.16309
913.45422 1222.4941 1045.7585
880.8446 1163.4911 971.43542
930.7984 1182.1389 1006.4098
879.74304 1152.2003 1027.9962
922.2002 1208.0929 981.46082
865.79504 1191.2805 1002.5919
915.487 1197.6763 988.16357
