# .PCD v0.7 - Point Cloud Data file format
VERSION 0.7
FIELDS x y z
SIZE 4 4 4
TYPE F F F
COUNT 1 1 1
WIDTH 919
HEIGHT 1
VIEWPOINT 0 0 0 1 0 0 0
POINTS 919
DATA ascii
-763.281167096094 1557.72636097020 538.170059479961
-764.166254376367 1508.94683106298 572.201332795391
-735.584361847070 1535.10466221532 554.689510224590
-869.597062591699 1587.40335414647 522.788481306133
-934.135850287012 1641.08254406346 556.196821137676
-837.585056360010 1556.90894658422 489.337256837139
-904.489935583643 1622.44536172094 548.587397492656
-904.884095935205 1600.99276379613 491.218044984111
-784.346624975732 1517.25251717748 581.827214613018
-848.722482861475 1577.68472479467 533.070210078105
-753.203995715479 1569.04094836644 519.353561274395
-739.462708996729 1523.75661135472 516.711235200176
-788.327746814111 1520.45566272191 586.192685303936
-798.989920300439 1531.15499592504 532.130015571270
-852.129730035547 1597.06381263036 569.099215595684
-852.504493048242 1573.91530103368 516.163913862285
-839.613586883692 1592.07184145116 570.327110981426
-736.281866223291 1482.76603513402 531.025921308574
-733.888592114404 1486.33617379369 529.105531550273
-744.096234747461 1556.26194175634 544.722186933574
-760.079311895899 1564.88910025243 556.332122675762
-861.081365124658 1588.86141975316 554.954402528057
-866.688576117090 1585.09795837011 521.774429255352
-905.435135601953 1594.66672464208 513.704371595440
-863.557179138330 1587.02875837621 531.909309870586
-781.814088507226 1518.43343316259 482.668549567852
-802.228535131982 1537.05410987767 503.098788489971
-801.729796911768 1533.30367656469 532.797584339580
-825.334680120996 1546.63792277440 480.006776801738
-796.264706384424 1523.03518571996 503.686956940899
-734.960571576074 1511.38902565526 515.195974976787
-752.360182660059 1509.03667782811 557.004649103984
-728.499864203027 1494.15961003026 522.675709272441
-839.781231445459 1562.64418121556 506.950471644268
-871.873746948389 1588.85694742650 522.658625513897
-766.590428558496 1549.34848102636 512.239403620586
-859.748028979639 1574.56099132299 502.701269843731
-872.501595672754 1613.28209369725 570.493147565898
-764.794669409326 1546.26742567357 477.928693439922
-744.316430645898 1491.31391563329 536.338958894023
-892.862688903955 1606.70648034887 532.527894428691
-768.283059393457 1514.02045070409 555.196662519512
-810.311512506250 1478.75111697606 517.600043775615
-786.485082690576 1491.39475406713 530.894752106914
-859.227667035059 1606.67187487401 572.043352644024
-783.555168567041 1554.61210498265 574.538069434795
-745.143595575098 1517.62877379979 568.145942731914
-784.560180371240 1557.47173368138 574.462689759502
-729.294776934961 1527.47039834813 516.241219709453
-780.761765075830 1516.59875388402 489.624519959697
-742.933687628320 1587.00568245458 542.782327644023
-746.908505511621 1552.18932965917 531.854476752910
-904.281920379785 1630.76242736425 562.489207001934
-921.856206927637 1638.43212597264 556.052165693340
-942.918564843896 1619.88244601049 515.972610328350
-885.875655206445 1608.06766795262 557.079678852520
-835.052445294336 1551.90676265477 481.468264472637
-849.337906305078 1563.08647505712 528.728513343486
-761.391100683740 1483.84013575658 535.191135755596
-733.702004559473 1552.23847526464 543.854656306133
-781.736175866846 1524.97293374242 496.336708723125
-804.985698309473 1485.01679054784 509.939895258770
-779.970940020898 1551.10869065770 569.730303889141
-872.561851428369 1596.73451159887 540.111242689190
-926.558551672510 1607.41406137914 483.702165052471
-943.225692456201 1621.28798514623 519.041318122539
-766.176456616357 1537.71290150365 488.924579456768
-818.012995556787 1536.82635470189 504.636117054424
-848.105989923242 1564.53874348973 493.311597456035
-737.755083526758 1587.68168958348 546.694631061992
-761.640831860498 1553.36307228002 494.589426191387
-861.139065460352 1572.03004478368 530.868562006816
-882.987426812891 1591.85798301610 539.600604108867
-828.096354077295 1545.56453473119 487.252348859844
-760.060810498193 1491.59618282689 535.181822816143
-730.305577038721 1522.73479548558 520.877915784893
-734.937602472070 1488.48069873876 509.950819831524
-842.350662152246 1566.75453122167 514.771368830547
-879.733144482568 1592.74210782689 519.075866657695
-774.852594287256 1534.04396139135 578.786658985576
-897.069215210107 1593.47519186010 525.746297852764
-914.826739758447 1610.56729800023 535.105937354717
-756.585736566309 1534.77540844335 499.253714228496
-787.197440704492 1519.65319878759 522.177679786357
-804.808089868311 1543.88622989721 520.264894636211
-862.080981286768 1565.63621706762 510.237445057354
-838.025420062402 1556.06271254491 484.102623811016
-779.968166558984 1536.27344285497 542.736709870586
-740.446203357080 1507.93827827367 560.459151691875
-848.708159741357 1559.14366212377 519.519262507305
-829.217047339014 1561.61485475072 525.075658625469
-715.615536767725 1527.05216241674 545.379073212871
-880.584055804590 1615.14852943944 567.228551337871
-723.586042498926 1515.08022423925 562.881926667461
-775.808255145410 1541.98188053807 573.200448652324
-893.817958520654 1588.43680226049 518.568296027813
-781.420366589502 1556.10915739965 577.027253077373
-887.672481079248 1616.37067699193 563.903975904522
-735.322243548730 1503.60775190038 506.157155683574
-884.318210388330 1598.52072605199 547.459250617656
-746.187186596826 1552.42860067357 515.188824647197
-822.761962805322 1539.95972051000 507.286625629863
-924.595607360986 1626.40229670629 547.596037995586
-933.269356579736 1610.28241872777 500.869073176250
-827.592860803369 1558.29389199437 518.472426478252
-905.500608087305 1598.33422574071 524.114944233379
-822.109675579981 1539.51701559667 506.632209943828
-811.418167511133 1568.82189781102 564.129720710430
-769.833282464746 1507.74786073827 548.197581342754
-832.442665753320 1581.39345367040 567.603673359356
-726.835035174707 1499.54269645604 549.705966663799
-782.071778338770 1531.83841281346 586.198305585918
-807.855099591211 1483.11103264989 513.187241932354
-793.323455670313 1510.43503597020 581.373081391582
-808.648556103662 1475.08756329564 517.303878852520
-839.708318103174 1554.78952663793 524.108945722637
-780.794144299463 1535.13136008519 557.105472126445
-883.477497381738 1599.03316559667 528.954101990947
-737.397543615869 1540.37430320043 523.264631477031
-944.559481842187 1628.14175459813 501.290575367412
-751.133704071192 1532.29104416112 510.401598188457
-833.329439355615 1555.04711678685 493.769155451641
-786.748170678857 1508.97733563451 506.571498890361
-723.930844220117 1503.55430762548 544.239082136211
-739.842462677148 1541.60177591161 515.784758063945
-905.104526892236 1599.42216028051 483.016109309063
-893.069614819482 1588.04148390111 518.837916932354
-779.467921710352 1542.27467268895 555.490180769024
-775.825070221094 1497.24043968114 529.142722224102
-734.072438385156 1529.45749822606 557.589215815410
-923.715352502588 1608.34144956273 518.941479108867
-748.391035504297 1580.16576822118 546.555616499004
-778.583716247705 1501.89533977269 539.133347309551
-796.120268249658 1503.52906645726 511.969455793438
-915.245893329004 1631.68553329686 559.967871162090
-881.435401953272 1583.00672599096 477.928994776592
-794.430959204248 1539.32956817846 550.658349232158
-738.545376678613 1547.30929479589 526.269210847148
-736.571179968408 1544.19700805883 522.289286811504
-890.741737317041 1591.11732295140 488.004578522930
-787.424543329004 1507.75795739354 505.054351130352
-925.651616485742 1617.77975889501 503.407529316387
-876.141218744043 1574.31625710057 507.014632679424
-721.646791876367 1512.88991695165 524.008118977031
-945.672760998682 1618.98638222875 484.684815589580
-784.065604278711 1511.97924395360 511.372014197979
-752.375228045801 1539.11154438085 486.177553730449
-840.391910504297 1591.92398885106 571.810364057598
-797.581531439355 1500.71880768651 507.040348127422
-894.926981475977 1628.33744258641 568.334044355449
-820.833233429102 1555.30029746923 522.864729047832
-909.511157226709 1616.79774923314 530.272557496318
-942.678209240869 1625.04046645726 488.819642011699
-744.210583947900 1552.78976865453 545.186617249736
-808.847303985742 1575.90483328466 577.014346552715
-803.498652154687 1546.78552730321 530.731838178691
-742.369941723779 1477.91770638646 523.373889820537
-793.151031634668 1540.48893266210 553.265435444317
-938.398476721338 1639.70697378148 538.090485084209
-879.042423639063 1614.14578279638 563.290910859355
-784.160607837060 1517.79594894017 590.796386732158
-936.258817230371 1638.48001376561 552.080141743145
-900.214188537744 1607.15669536351 521.533395997295
-723.224550836328 1505.03687359227 547.867524110088
-769.682831903223 1494.84705221776 549.610006208477
-762.628309607080 1486.49007170629 527.271274122295
-808.024499200586 1532.62326245946 489.182402729473
-882.927187103418 1612.87324345311 563.762819135723
-796.609064141992 1560.40015064305 566.641564851055
-947.706621075586 1621.77760276708 487.428573005352
-742.455324597314 1564.40571557836 539.337385499248
-759.654151654199 1540.93988112401 558.779820808086
-869.304757690576 1600.42251444310 560.994041798076
-865.897171179346 1601.72675122289 557.814326075420
-810.337006805567 1567.59520094823 569.272262873516
-725.911074475244 1521.05718772191 535.092961152324
-933.868313818506 1633.24578878392 548.055658918438
-906.651692743067 1618.59141374120 538.243294019756
-770.494064734033 1499.45746081762 514.584187348613
-871.111012188867 1611.42018496923 567.304923640117
-822.153574762109 1555.33830899266 520.317929310283
-743.901967047266 1500.19380867528 545.751486274395
-761.086007501367 1555.59322827977 567.565194953594
-790.204577411035 1514.70734076757 528.431600843486
-792.857514972070 1542.07364742040 536.430935969219
-930.664064691309 1623.21998283300 538.115769685039
-834.333420892480 1560.54453913182 511.917348530254
-761.812504211572 1556.79986696996 516.604133015117
-761.291616546777 1499.26407480077 538.098219703350
-762.465391815332 1486.39364499120 528.215295527324
-829.529602429346 1587.13090637426 573.062068446025
-792.984215313867 1511.05267774266 548.751965290508
-721.654770391992 1540.18522159032 544.526289252910
-895.410585308984 1586.09317559423 498.009298395977
-941.387214593652 1616.31229059667 506.647921583233
-755.392718280176 1499.24088180761 551.285953290996
-786.737824310449 1523.35089862889 586.294748749981
-877.893382794336 1618.63369739598 571.741831660137
-754.550352325586 1572.17943545751 550.285027668438
-930.883257544092 1630.25969122533 528.542001264629
-899.803260003809 1591.66705612401 516.347638679180
-737.516371277002 1481.36344116430 529.544764692363
-814.737272650293 1542.19310790624 490.045885694561
-740.383940179590 1573.79212585057 524.169188288555
-793.658190863184 1509.85234435643 549.795576203594
-798.622732281641 1498.94743199071 562.673958863506
-772.563664978174 1495.96462556371 546.495014075908
-804.982777008203 1528.89498069677 510.431387080059
-936.793173993066 1633.30114569921 526.355445399150
-734.254446698145 1528.71887533788 519.881438911113
-876.850934771875 1587.17029063329 507.880852619609
-947.829541504053 1619.40737225560 495.185790552959
-779.608846637109 1528.16348614110 496.856359394512
-779.815304754785 1531.45819455175 526.742144581279
-733.058961956934 1495.95528395604 553.523899921855
-784.656000927881 1540.68671075658 560.391099610576
-790.509102954248 1522.13302516088 523.209320362529
-777.847699231104 1528.00443967504 476.519616999492
-781.912680377344 1500.17424778661 549.946306428203
-847.514662066797 1594.05515598973 569.339609895000
-816.901222595361 1563.21024682836 547.587864521465
-779.815959710840 1535.96131308202 586.937703242168
-783.365603314355 1496.83676667089 520.203429468975
-750.750588885645 1502.56233420018 506.511932172832
-816.883651013330 1552.27379721898 521.534162202129
-840.613553070215 1551.88784630956 493.439749848613
-927.015326422266 1613.29331585302 481.335766206035
-758.287274395898 1559.04870440282 559.412647407207
-795.037634466699 1507.42476234960 553.114595576152
-915.760996966699 1642.70623007421 568.518721821270
-930.876810168604 1611.68418838109 478.164299811992
-793.729017260889 1540.39338873510 530.882916029033
-738.793888379053 1496.91293885717 553.747976173076
-751.646153576807 1554.00649143285 490.226041401348
-884.435596270898 1583.14361739110 520.953872749004
-765.296970196680 1509.63687845067 506.862774409160
-722.896765710596 1512.98427263402 563.917815308818
-822.115950244287 1557.93268792943 550.164468073711
-778.277041711572 1527.88608791722 480.443688251934
-773.244280035547 1509.86955037450 549.500437861309
-741.778075244287 1478.00935140599 518.364018049297
-912.135340185693 1608.09418416967 534.086659315166
-908.032666906885 1618.61700952367 536.374665009746
-893.920329718164 1593.37427586278 488.967563337383
-769.152490997461 1543.76511380223 579.844915046367
-938.159430005029 1627.24277411107 536.464783839092
-889.061279425195 1615.40048406591 554.484061237774
-770.232585461572 1548.61557475805 581.658612891826
-765.349862512354 1537.95402478246 483.608697700176
-795.987682574609 1505.20580789403 533.390336750469
-947.450196118311 1623.96367420873 518.737189069805
-791.378685327295 1514.19962196263 557.825697437725
-799.039639679102 1499.94859512548 545.291402814922
-737.597100811914 1567.06171751317 532.484680805645
-876.156777093652 1597.46209066991 552.859045356426
-916.834886749414 1615.68952862157 514.730354243145
-766.183243292383 1553.45355550145 538.056096271953
-742.355620697168 1534.73842885350 505.191158332500
-758.922937945703 1491.31261934423 541.362038898906
-760.107720575098 1502.94257262792 546.671180024395
-882.192709417871 1578.11688781347 492.300138837871
-890.897022302393 1588.91838530492 524.741276002178
-822.017180090478 1541.03698059301 516.841184003887
-804.709171820215 1562.98283937596 562.026119208965
-754.196167791895 1564.93923608007 502.903177644024
-787.210098449854 1547.53959021215 565.676479993877
-724.752698455957 1530.23112441014 547.772755219707
-754.500712945703 1502.60159541845 552.368315601787
-778.741597967676 1520.71652155370 498.237217084942
-754.325534631494 1542.52741933812 483.747265253887
-725.942250738672 1498.94539595555 505.635103071270
-722.668278784326 1507.90743600072 518.277297047100
-719.019895501855 1528.36369377050 542.668595801982
-886.571976056055 1592.77205364598 537.223639374981
-751.597430291895 1567.26663859471 547.729475642070
-883.327149524072 1595.42782995824 544.284124848613
-838.686679333643 1551.34142588109 514.657875391826
-784.941805902246 1532.00102006444 523.801168232402
-813.413870306543 1572.19539911718 571.391805451641
-869.529003131250 1575.29132683934 477.909134028301
-836.686408929590 1562.36347167577 512.815418378887
-811.728535870508 1574.13226753759 571.820013544902
-753.083157910303 1485.57313968724 526.047260352764
-926.399929974512 1609.21379211034 516.635279536113
-778.044300726465 1501.78807167577 537.398228742656
-796.350802465967 1505.40789771947 568.098906959209
-862.469468939356 1594.68003315038 549.473500397930
-804.466443292383 1479.21974410009 525.103663953838
-739.506692578271 1550.11350958471 535.786102534160
-803.093512079004 1527.40172206639 502.584148896465
-886.359987799219 1600.55541822118 548.263901826152
-905.009932544092 1606.24834781713 538.766735688457
-804.959952209619 1558.99081650609 564.695596717510
-879.349393261865 1589.28605887670 539.433079029522
-799.940634033350 1498.64738341283 558.896403101787
-865.580559790186 1584.84465999974 546.367402515850
-864.786028393701 1594.56216651830 546.320884382305
-782.110222589258 1552.91725874852 573.958382050762
-921.393523388818 1622.28013668431 524.289327515850
-758.913997027735 1565.31327420263 546.863039509258
-738.802784936670 1477.73338446263 520.604254011211
-760.298620984033 1554.12942441625 488.170395740947
-932.570809716943 1616.81469139623 480.931101105938
-827.361371472315 1559.46041176976 547.428586408672
-733.798644610742 1517.76245393895 503.607022419414
-935.879481280664 1624.78053416356 504.241512531719
-796.684926739648 1539.42425205907 522.870769147930
-782.835504974512 1520.30886286229 594.881079719219
-763.767484753565 1555.98276657933 530.583500703105
-779.371279858545 1530.38233407201 510.799395576152
-791.496563849023 1544.37346538915 543.678985615215
-847.845209832910 1575.66219184179 529.515584864482
-720.861365118555 1506.22194053563 523.081240974102
-804.300768878320 1567.36584431981 569.322605634746
-794.493645123438 1494.34114663915 559.490834443340
-757.708792895654 1511.50830033178 503.355063380108
-941.524876391748 1633.68807603978 519.467954359111
-838.847730658105 1581.36779164647 554.071150092754
-908.353343066553 1615.06773092260 527.856763990459
-863.062400811914 1572.32455337743 528.909035407695
-909.372377789453 1612.86593086766 520.642819501934
-834.170972766260 1583.00802168187 567.972897462139
-799.284450683740 1499.60357120580 549.329554884014
-891.953285418848 1586.05062650975 483.484474567852
-783.900096167139 1511.74367984838 489.854856965313
-920.457682769922 1602.28720056981 502.758318391094
-732.291549780420 1527.00343358373 558.495477747783
-853.866366870264 1567.70402115697 490.494663770732
-771.613212390283 1495.78675942601 517.130813398418
-793.945374127344 1523.51756358251 490.630533832988
-769.609018286279 1547.31655094213 529.870351484355
-755.510738482813 1514.86472981786 572.521260651836
-932.935256579736 1621.18404770726 532.511655500469
-803.860973895410 1565.67140580663 567.208991254863
-817.881210260156 1546.02979873876 536.545962141094
-878.073232800439 1602.87325903539 545.192914918193
-824.830690252832 1542.04488825292 513.145261933574
-902.453904303125 1622.74000933446 551.527025935039
-751.774461145166 1532.10469350804 511.163467738018
-719.298142663721 1526.69506045140 554.588791700420
-759.901833514551 1554.13038034276 484.920660999736
-926.029871972803 1618.44224029760 504.638328547344
-721.978659527734 1506.26235828466 540.675492329082
-844.936317852930 1581.32648311376 546.367695197734
-737.195561718896 1541.06500614232 522.762591322002
-794.576178656152 1485.83661034764 548.295322095928
-824.330038391260 1549.07300583715 534.160406501445
-946.395304211572 1626.55319709691 514.016597034893
-792.548355963281 1535.46937461766 519.290957172832
-903.850513177637 1597.72508056249 478.656719544658
-804.146268115381 1490.37987948217 534.135210529766
-780.317289489893 1556.22658379125 576.760603297100
-850.408599737695 1557.48393697118 499.193663642559
-729.874337957910 1508.13476415624 569.013651740703
-928.520173065332 1621.27881630468 537.355056385479
-809.503012445215 1544.11443800878 511.415864869365
-794.617635742334 1527.50858692846 481.818706354961
-763.664860260156 1550.92065437841 561.553284736309
-779.473654168848 1536.50061630468 584.486349970684
-836.190666467432 1565.19063467015 522.269521369609
-757.511291504053 1549.94260274877 479.689236603984
-901.238938433985 1611.87116873388 549.484955549297
-776.788222467188 1506.46073211278 548.361585969219
-766.621948193506 1546.32169120092 562.061153822002
-771.077579712061 1488.72555802221 535.100700336895
-857.291152209619 1583.39910554418 551.731620966777
-745.719701538233 1541.51816593236 524.742079975566
-733.590047418359 1485.84663894872 511.101041663799
-829.801561816553 1573.07705545873 550.043681135234
-913.120852008203 1601.40816817235 476.800961097393
-788.078210479883 1508.38798843602 582.311788154277
-844.628068377832 1569.67195883397 519.016570594463
-783.093301208643 1528.36364272680 553.079367280254
-771.335927227930 1540.62319402684 499.255188044414
-744.442675323633 1557.88318011083 537.711847828350
-722.377919500879 1506.12983068456 545.525339582500
-759.344479943994 1560.19117453832 516.682234748516
-809.258768957666 1565.42282871312 560.964957801494
-819.430529272608 1559.87432643041 536.890570759258
-849.299743487695 1562.32051289891 478.607166706523
-798.005018219141 1490.62493011083 513.532988923320
-944.025106140283 1617.89379536351 505.791342902813
-882.210670404199 1620.92714826268 571.086988142070
-747.553049273828 1566.52653960790 539.674645478496
-735.932370691064 1482.23427011937 520.443496589336
-765.257158911279 1514.68952181615 564.566265534648
-727.770237658838 1538.26958232640 550.337289112529
-770.067600903467 1541.42264627904 492.151219868145
-945.790869391016 1627.43255689305 513.311824128398
-875.454473504785 1581.87954396581 531.380760236797
-865.033545855859 1583.08059847020 544.539784028301
-867.676047601465 1574.48367045507 479.992207124004
-927.886640020898 1613.37565332860 478.954249604473
-887.691568951562 1607.42740118016 541.351942890606
-834.588617993311 1561.74070436010 515.074240119609
-871.804577630762 1571.37241032323 505.934265644512
-891.850086053613 1589.27216335057 475.381468574199
-756.212720269922 1566.89464600438 531.174460493145
-798.063745794824 1502.07169467382 559.267295771465
-774.398486981348 1536.53508898534 502.224065754375
-810.639016076807 1478.14235544652 517.063757728252
-895.969838458399 1588.01837132177 485.447591547832
-821.034840484766 1539.04236902684 497.679409602031
-793.280839788965 1553.32934220800 558.711071320781
-748.088537323145 1509.18277099218 501.716161475811
-778.929254834131 1505.74156280736 555.012394410381
-795.365919012598 1541.36194613866 530.587737311992
-908.644722516016 1606.89178028173 504.249989448223
-740.497157855371 1529.22570107030 526.183478254375
-921.381761053613 1610.49007284764 527.208852338848
-843.956286285547 1553.45444539403 497.841650947246
-834.416239019922 1554.08822371434 485.830546735820
-795.922930035547 1505.70825760106 548.856789600811
-800.007339508203 1556.41789385595 565.595455170879
-750.077373584131 1545.68933097142 522.733909437236
-777.670642077783 1521.86450581273 503.449287354717
-762.612470111231 1482.67189323339 531.363432496318
-850.313195514063 1560.67081814794 482.851680598125
-834.663091790918 1547.92703446874 509.700692963848
-794.689686340479 1505.82053381566 510.546856415996
-777.646590118555 1536.72864815282 545.452889820537
-832.044451501611 1572.65306350316 546.243933430156
-744.607569745020 1566.52377550878 538.749049555645
-737.487751873926 1530.45066598729 558.070848298320
-767.690503369287 1512.43379767064 554.886897224102
-802.895578772119 1487.47187563695 544.699104176006
-937.362129632715 1625.35496647557 503.015373591289
-787.440016790918 1537.33209735936 554.234455634746
-892.684954565576 1601.19638394994 518.921470075664
-723.079525482324 1503.95793542089 535.080758906231
-862.169459515527 1606.23500190038 570.771128693828
-776.712754132227 1495.92318738622 518.654870325908
-771.401195507959 1490.50636358861 541.961799946270
-926.384803564600 1630.64889417943 550.978570179424
-794.718477240137 1506.87724711522 525.333567097148
-791.606975201563 1560.62864539403 572.086432673320
-841.624685235742 1557.03102903661 526.573463648662
-898.261790747217 1607.86391656713 547.168095222148
-848.657590063623 1564.19057301244 489.829485126934
-800.878831298975 1528.57469232396 487.999443372783
-758.627533221582 1492.37132963475 541.777572749004
-774.462075244287 1549.73941219701 575.909143604717
-860.429090295557 1606.33672817601 570.468777344951
-845.300779803613 1585.73267284764 554.108892475566
-793.564107946924 1535.62040376195 546.306691816387
-874.486650665430 1582.28861966161 495.607843507061
-796.182856646875 1530.72522962255 535.121808900127
-920.800436993555 1604.81896895360 480.067432825908
-796.950557031396 1533.81005973119 503.863833436260
-928.956744958643 1629.49227649144 529.816596595440
-942.960523425440 1616.31155185765 495.254255714092
-893.697715979150 1585.02713584203 494.993990040264
-948.723723303369 1619.95472207250 492.198427387676
-797.909822406152 1543.18690514745 530.970871015605
-842.943905310205 1570.46232063207 524.510763123760
-775.387596429590 1512.46196818456 566.114881373272
-930.053548217920 1640.02492328099 549.245306129131
-741.960481360010 1479.29848684301 525.641329243145
-929.096088635400 1640.03443486547 558.616175513897
-841.876439636377 1576.69666819066 556.263575684795
-932.765121014551 1616.22838786229 477.417266633281
-788.623272192529 1513.76846698217 490.760421656475
-739.434887030176 1535.23324753026 521.533784711895
-722.323679559473 1513.82186364354 563.236684919414
-904.857124194482 1627.70940467748 563.177582655010
-930.767310241846 1632.05525346898 532.755095435772
-760.737668927148 1559.91564473485 571.671409443340
-789.612561035303 1530.71292784642 510.056355909404
-883.410090832666 1614.49305551976 559.330820374736
-747.627148693994 1549.01856086644 533.092397657451
-926.560880145410 1639.95246354589 553.267707404766
-919.490084454492 1635.98396387548 554.663997614727
-801.916579266504 1537.50489069432 505.475919270000
-897.215839618066 1592.91904938573 476.291642127666
-798.073599084619 1532.56935002660 495.692684071025
-928.397905090479 1637.91952834691 547.495710987529
-810.268686383203 1560.30718428563 550.639545051250
-770.235344854883 1487.36726109227 527.362863483867
-728.398265832666 1505.28727212133 569.101550379619
-763.503732428125 1533.74307827977 491.888052900371
-795.577372717432 1477.61607732152 536.838246748027
-828.771130853418 1547.59877782811 482.646209943828
-750.511863012842 1568.85627044896 547.716298585186
-803.821246197656 1548.75246443700 535.030873823223
-864.049279638818 1587.48552645482 551.048973835430
-864.582880743555 1566.91625618505 507.366540156231
-780.755823114160 1548.12905832128 564.206502827129
-872.132427221826 1585.23153634252 540.730468665752
-830.261365393213 1565.88555197972 534.106297700176
-779.894452740625 1535.45130208348 541.048598926982
-806.403677343896 1486.03642569799 524.632542902813
-831.236119867090 1549.42096559667 524.708903840313
-875.935815655664 1609.48320144872 559.408651594219
-797.446318109277 1529.29836090917 481.594143403301
-852.678732739404 1595.90786712865 562.800055201397
-930.143932873682 1633.69928286351 551.475397462139
-761.234910638574 1548.93707221288 474.800949274883
-751.558316900781 1542.26902473973 519.216540937480
-854.483097332910 1564.24699704198 523.299418781719
-719.509135370020 1528.77366505956 543.648855714092
-910.275117700342 1637.98363988256 567.190858424053
-786.025645733789 1495.37606079930 521.914202985820
-886.216382672266 1615.83738011083 558.460737080059
-849.592421685937 1586.24091812352 560.675560957012
-777.638765875391 1488.49275711278 528.088987226543
-795.951666937402 1502.73963441991 497.392912702617
-750.759776312402 1543.96125348729 521.409314216289
-738.463091174463 1478.44592722387 522.345055366191
-829.247373657373 1543.99502999486 503.397694477520
-772.197948840478 1538.77871772679 582.496100526104
-737.425532684473 1566.27543273534 518.537387446270
-791.799293292383 1513.42074795751 557.287460932598
-779.109930865625 1531.20061565770 514.442930646953
-810.202650836328 1475.38505520848 523.829794141826
-779.362003326563 1526.60699324559 592.877277729473
-833.757528210596 1569.72303396215 537.647829224834
-836.671136725000 1559.53481092137 502.864032648906
-797.226954162744 1503.36198532933 549.919551392803
-827.361066925195 1573.38271861180 553.618153553447
-823.849576208643 1563.49908335180 538.448490998516
-931.693505700830 1623.75068684301 509.521718934307
-802.815067535547 1527.23639256200 502.136415986309
-751.763121978906 1540.66197054052 520.940409748516
-769.984901110986 1537.61403645238 468.638867988262
-814.922744342188 1542.04621819677 488.813051392803
-749.589468847803 1556.39719464330 546.370901844463
-755.123064538721 1569.66188554906 538.822645997295
-781.983795239404 1541.30093844213 563.073079237041
-774.783387408594 1541.97405618505 553.027669312725
-765.567012817529 1538.02079771947 485.783272565898
-739.660827026514 1521.74134437474 511.631859602031
-943.921443982080 1620.49166264867 476.061144727764
-747.064701873926 1579.97537226171 534.531111689434
-741.555074780420 1495.55964957494 546.166382215557
-763.546611547998 1488.54440416478 521.741817115459
-797.517985266260 1491.05592861547 507.431649433574
-785.436772827295 1530.42096883764 518.172953736553
-862.644266046289 1605.12996360692 566.494614643535
-736.469976214746 1568.89892802343 534.260168098125
-844.225263757471 1579.28431872777 543.161315076885
-748.817253546289 1497.06593189305 551.546114069805
-742.788783685449 1566.46754652929 513.374436634502
-907.231305633691 1594.63447948827 486.814487403545
-746.065268316797 1554.16690555028 524.561131586895
-817.393351904443 1541.10693976049 481.620376874981
-780.347432757715 1494.97496515721 523.030248676738
-785.119824298242 1526.84614805516 506.695944746074
-842.245575628809 1581.64965209569 561.230969245586
-775.435283868555 1535.69174834813 507.205448627910
-846.101624652246 1587.44686354589 564.238119526348
-738.581955798486 1563.11040840062 516.943623096904
-725.597320593408 1499.90453584203 534.190271491680
-746.511715985254 1567.98286562108 538.476220588359
-728.571082470850 1517.44603963842 529.557542255840
-785.797007483057 1529.82115786351 515.458968525371
-945.834716076807 1618.16350085668 498.648393317852
-738.110236847070 1496.99102759618 554.379673469219
-776.656116790918 1522.11828739843 485.951360566387
-874.651946301416 1586.94474868383 540.734381525859
-762.723746075586 1552.54692852391 562.977932209453
-735.081984851221 1514.93899919652 500.973823695049
-912.396484271387 1597.15095966405 503.183000190410
-921.517649737695 1644.76388794774 565.941396674785
-879.466116241602 1616.49752351903 569.023291267070
-810.815147210840 1540.79882057714 495.520656763897
-831.070963800195 1584.64928470067 567.958561225566
-772.610594860986 1545.74657414769 556.646194923076
-841.386922528223 1594.68594079198 572.318946821270
-912.200697345117 1608.15251426610 534.108682655010
-756.541760162500 1529.95410564794 506.422343568096
-791.756065496973 1559.59380641698 570.436589289531
-738.858038495020 1541.94141545018 516.912748127422
-928.763799627832 1637.08916794042 545.595080805645
-792.972681115869 1507.87578513402 499.379190003643
-908.400594738916 1595.56697241430 509.850835993633
-935.024196478418 1647.03080736913 561.352941791973
-762.262771203760 1545.58742238988 556.822964918193
-846.764763470605 1571.55823441991 520.501106110820
-912.549522863916 1626.55827207250 546.270935218486
-797.150484826807 1490.95606745824 528.058994721660
-815.470899194482 1541.29802240209 483.320401166973
-794.708614434961 1545.81337254247 558.346665974102
-795.416655334619 1522.96180857152 512.572072987041
-815.591013452295 1564.10175433568 551.067979414043
-778.185128393701 1487.03088407201 526.802997803936
-734.633930627588 1513.65941801976 510.325399616680
-942.928815588526 1624.27816203832 484.606784101543
-744.162430932764 1554.19839674291 509.251523963604
-772.696577093652 1546.69705939550 567.740215607891
-828.544086602930 1557.81210567235 515.238953217754
-790.862764929346 1525.27494255590 482.870989320049
-793.487868097070 1510.19100281591 550.954859132061
-733.454827429346 1520.74135041722 562.605064771709
-947.985942169336 1619.64170486669 490.651495081768
-814.033206079248 1546.61355677709 509.888973981914
-903.377646136621 1620.32018241796 557.047200239238
-853.034518444971 1567.12966286840 531.893237714824
-736.452714495996 1485.65927543554 536.570964393291
-930.564778912500 1624.20706665868 539.540397626934
-810.145452984766 1532.19967139501 497.635154023418
-767.758664471582 1545.99354330663 577.802013300762
-738.984070800928 1584.36376827611 545.558656116924
-775.469473321680 1512.28505826024 564.879013294658
-713.064881720117 1527.56616995458 549.943319831523
-785.868544568018 1522.09275415258 483.150541260967
-768.657658245996 1506.18907231054 555.929616877422
-763.735055944971 1504.77652946996 565.601063483867
-778.197482403711 1529.85964678563 494.106824592266
-757.484716272119 1548.10978122777 480.035111768779
-784.164070007471 1496.09565815648 551.723934107647
-807.544270648340 1562.86741496190 566.700009504375
-787.896044537500 1506.56015061864 500.602951685772
-786.189722601465 1523.24175732030 533.419808002910
-820.139454309229 1575.44862524633 565.262442774639
-756.934937280420 1532.08964586400 502.087506354961
-802.659081762842 1571.83021976537 577.222796387920
-876.095429303125 1589.28598172216 515.796268781719
-932.779160553125 1629.26063267430 544.191738264141
-800.922692169336 1534.96025017919 498.093376636943
-821.730051379541 1545.55371911840 484.390490205059
-882.074744922022 1578.69199337377 488.262427253399
-880.791552746729 1615.38035857152 563.360404993877
-742.111758892969 1491.20586907567 510.580588459453
-720.046001135400 1512.95592817601 563.037184766826
-871.177500390772 1572.37643954076 513.991522321758
-896.791479889062 1617.71885840673 549.391076978740
-787.490216681055 1519.23262083348 528.158814283428
-846.555807043603 1573.29274778051 525.684791553936
-842.280635260156 1555.06119065770 484.743509223613
-799.267967706445 1566.95702625341 573.708764289531
-737.234926019434 1575.90043900975 529.742171967754
-787.885593573145 1561.08819203710 576.340039204082
-812.012370886377 1552.75102793187 552.389253828105
-800.851584607080 1557.14175488500 556.453177265606
-798.909087420801 1525.13269247655 497.739762324199
-878.487981823877 1611.51522419652 559.885545130596
-768.609664831690 1515.21546135472 556.610097504863
-829.390315417627 1551.88808806371 490.790051044902
-728.279818475488 1497.15804682225 548.620187446270
-741.788661688379 1578.08096259374 527.666684870586
-769.265822180322 1544.03548789281 502.021728065166
-779.562186547998 1542.28299520482 565.774362110576
-756.324481189111 1569.83535017308 552.189613453350
-725.304249798730 1530.74116210546 554.061174152813
-810.383222442773 1560.95794942235 562.854829841289
-886.585687878565 1599.21780522680 546.331181635723
-937.857805023340 1634.98485221776 528.809727912578
-796.833617975000 1489.20118597020 551.145415559063
-723.069314886621 1506.79009411229 562.627266968975
-809.891818249658 1559.70943203344 561.944690052471
-759.244211517480 1558.04606781835 563.231504975566
-882.348864123682 1589.74289738988 504.371452326641
-755.829144818262 1563.81711728124 509.576853498516
-879.114784143213 1581.94463362035 480.115473719463
-941.506902319482 1625.95349325170 495.239187696514
-805.224524670557 1572.86669057836 576.795024366436
-946.598700164941 1620.36340941991 481.641214710674
-880.995066839746 1585.50058681249 491.482995478496
-764.001717437891 1509.17858999852 572.641948041973
-824.514971344141 1555.56263282079 516.425751588115
-940.406668097070 1629.85274939794 538.090842664775
-895.527363073877 1620.80043803930 562.862146998271
-723.489637744287 1531.79117144994 551.452338636455
-744.927919201807 1553.11860280980 509.047720155010
-766.755937561182 1509.99867780980 561.758102918682
-787.754069079736 1514.78772441625 488.178745167217
-820.770507672266 1539.06158379735 510.449481757793
-788.232742028955 1551.03901223363 568.368245936260
-819.287825244287 1564.72795956029 560.346547022686
-788.576719946436 1546.28256131810 563.448822010479
-745.204455481103 1523.43261613988 506.363843757305
-933.963280920557 1610.84309902562 501.690734583721
-929.785785858301 1652.65785568456 569.023181721172
-872.717266522363 1588.88698327245 545.248409418926
-854.479435553125 1565.80844114598 479.312989020977
-848.470575573877 1557.43073818578 490.045229224834
-783.202199963525 1524.23720722875 501.420432185039
-855.475342822412 1565.57053629369 525.002273780498
-729.551563287500 1532.80843304052 522.328953553447
-909.347146179346 1625.47070249242 557.968053382549
-861.070414788965 1593.05022460546 548.201299946270
-898.195818695215 1602.54868927831 540.166665272197
-889.710609106592 1613.05497298803 559.323770447979
-798.390680108789 1501.05880652684 542.448922602520
-843.426459515527 1554.16120766210 490.654001984844
-783.604174121240 1497.37985033178 563.597116474590
-786.390927801660 1510.13676791600 585.611367023906
-817.517699249414 1536.51461453466 504.522150947246
-736.710772717432 1538.93771841039 535.646950635967
-784.247484436182 1496.08380727758 558.142164027080
-815.194106024316 1567.45725695409 557.621162836895
-824.309645501856 1540.99644672460 498.833335480938
-919.384495526270 1627.01191374120 552.352826032695
-741.285544976953 1579.34048059911 534.337350080547
-852.014285955957 1586.59878241796 559.329670002422
-726.838407226709 1534.45208131322 525.823808851299
-789.033225592188 1525.99916697606 492.525964222393
-743.994299340967 1480.87051495580 527.888344428691
-739.969858911279 1565.07557381810 514.610948945293
-762.021851983789 1539.23006079930 488.141562977275
-937.600467559961 1615.10516624364 511.610378474102
-864.095082019190 1571.89602983617 478.567953144512
-933.792907318262 1621.63431549901 532.306286414776
-875.685564502100 1592.01894830541 546.691571253643
-715.194219659570 1517.76352398290 538.474081031475
-753.454966034082 1536.04689020604 516.342002058086
-794.663551074365 1495.74272774877 505.152359717998
-773.619259997705 1543.15616367406 546.357769111309
-945.100724047998 1629.41337962865 522.012434852275
-757.474170617822 1512.21266516332 570.071408454570
-767.451851062158 1541.16905720433 561.097960426006
-911.720082611230 1597.44086083593 508.563033222637
-917.034287970117 1611.33779222020 500.410133552227
-806.047047137598 1570.38019540624 571.983712031230
-907.840103656152 1598.01803495702 477.219640357647
-855.710198632959 1565.57178324193 478.865548414287
-758.572371301416 1486.26376792211 518.717398926982
-872.706698767236 1597.19083144750 555.248757966289
-927.272422009424 1617.69526723851 533.058157941875
-776.451315594629 1510.75814987401 577.155963862285
-775.261497235254 1532.28568156346 480.277087885723
-715.160083856348 1529.84669013280 548.402409516582
-829.004454864649 1559.18038604345 518.344077851543
-785.520447674707 1545.87219767675 565.188807770977
-791.176731616358 1514.67537691869 562.195260853252
-861.521076733545 1601.78053763646 567.411456055889
-790.094182953027 1522.22730194921 524.424565223369
-931.157217266992 1612.44671722020 516.853474494609
-915.392755230859 1625.87257261571 554.179681403789
-830.951345758203 1545.70966922216 494.307585432109
-933.656836120752 1635.01735722875 534.910521766338
-777.894444275049 1521.41463330297 494.120309711895
-802.424314685205 1539.83529638890 512.586924036846
-736.223853582910 1546.92533151464 525.259402241191
-781.902083673242 1514.92843274755 490.264449018535
-795.680752655176 1528.88169135350 485.451249128399
-737.571090533594 1530.98247764501 557.779183417949
-934.646477838281 1617.07535569677 475.575821259746
-869.389530426172 1583.57357412938 541.035833228740
-810.320331842187 1537.24418435888 480.649669123516
-938.236867224268 1622.83832492894 491.481737067852
-723.455696734766 1515.80341687841 523.449468122539
-783.868781469873 1554.18074923314 570.366866334209
-776.816689477686 1510.04627503881 575.151711091289
-803.015232055810 1528.38785672826 493.694239680156
-808.654445019678 1546.50403370580 547.177530909404
-739.755876770166 1534.99897160863 519.118246247539
-761.041661834863 1517.48454171972 573.237728522930
-897.417436700586 1606.27169519872 523.958350593242
-832.180634362940 1580.78865515355 567.212117261943
-785.394045666650 1493.80928471898 550.029089320049
-814.256402069238 1577.66432096776 574.379875178203
-767.653079132227 1543.16313514013 482.773232612285
-903.095269458154 1590.99371563939 499.913145844707
-742.264939251856 1507.21176557225 564.281904041729
-851.813988739160 1584.51850871190 543.514285517559
-768.224528955225 1527.56454832982 497.067865949688
-760.294485138086 1481.87026570653 534.165584235820
-769.986138842920 1542.26147447728 496.744228712139
-771.390383899072 1486.88731299047 529.725850721416
-770.379471374658 1550.02841150121 564.499085145244
-750.314782324365 1512.07719337377 564.056928767070
-779.989299609522 1500.02521378392 537.102440882549
-767.718779358057 1511.84983061742 554.865465760479
-875.881702795557 1576.45130378637 517.886342170391
-747.768910894922 1532.86455139989 505.299917170391
-902.724070001367 1626.62587005223 563.569865192852
-866.627489032129 1593.16282318944 540.922636030254
-772.370597277979 1545.91069944066 583.948684351787
-869.057355291895 1577.25714245214 489.014388386211
-787.646475140527 1519.68787902440 538.116532227764
-838.689427740625 1559.48104038915 535.612063142070
-751.828270868066 1573.17813422460 532.868102546367
-749.061328021387 1533.29124745702 560.016801105938
-772.202155963281 1498.46100254735 545.728552088604
-742.643554992822 1573.86513562230 521.984855134258
-785.824971661523 1523.12711778173 543.604096052227
-804.561869580225 1528.54313431615 499.087451032695
-865.695045739893 1608.34674829320 570.431580848369
-821.106917108301 1544.63206147069 529.424021113262
-773.620525024560 1513.04196541967 560.151967322979
-739.747949780420 1589.87351886205 547.397389100322
-847.263283728174 1566.41045456762 537.609711787090
-940.493610144190 1638.01036997289 535.202284516582
-867.526549505762 1605.53920033788 566.971344733867
-787.552337750391 1489.92291111669 552.812830433330
-849.669279004053 1578.21295545873 551.826527814922
-844.893400262598 1589.48939787206 566.966237287578
-729.509751123193 1524.84584508275 521.170344117412
-761.919100055078 1507.42307754735 568.803203388652
-772.226849835352 1545.04154236669 584.422986372051
-835.916930078272 1591.96223748998 573.698774158916
-775.206227942041 1545.29705356664 565.678599280986
-798.432516974024 1500.79274248876 534.803156037578
-728.478805658105 1540.71437211522 541.023229627666
-925.399344714502 1635.25235910863 546.350247993145
-771.748351776270 1536.96326542577 479.207283186016
-799.619993512109 1535.86589920263 504.983619062481
-930.808189508203 1651.06597596044 565.903525861797
-750.723865716699 1491.60727751073 539.015920924053
-808.994612671045 1531.54009217748 497.134388685283
-723.773210138086 1502.56258133153 532.111807990703
-750.114988433984 1558.41141641454 496.803167097149
-776.778821826318 1551.34656004857 575.867315504131
-717.789856317285 1514.08471603612 552.710048920879
-777.441538287500 1508.82760523290 571.688428034648
-786.893900702051 1520.86836437597 536.730047913799
-831.236922863916 1560.26057248754 517.201590131816
-796.359040912012 1555.07055478124 558.135131879863
-823.429821814111 1546.19896831273 481.972728565654
-859.894099469141 1594.21889431981 551.749256110820
-800.515851037744 1528.64325244359 487.129537440166
-789.927154760889 1548.75357091283 554.502236237773
-903.420324347070 1603.68815398778 504.967006568584
-849.467915899805 1583.03898977880 557.444081660137
-722.419268927148 1544.69207920751 542.236719038066
-794.744316858057 1476.82663628148 536.378675831279
-721.325816717676 1543.31381637792 541.904026179180
-761.348719018701 1490.30814403295 517.173984357891
-877.620396148828 1594.08200598973 526.263786018047
-805.860316821436 1487.31319129857 536.225965937481
-768.695128259424 1546.89967238988 516.932184742412
-813.739072540430 1559.53767635106 558.901920246562
-745.440262030176 1487.54480785741 534.504928675518
-754.630389679102 1485.99941543798 532.976347980938
-929.305767285303 1616.41686805638 489.237452619610
-755.563870855859 1562.02795249852 496.672222144756
-914.536552887110 1636.05777615575 559.969126228008
-751.875878070215 1504.43335644139 564.013718464336
-724.856363360742 1520.63456275243 559.961787751445
-763.944130890039 1524.46689683446 569.977696015606
-856.306444995264 1573.61418084935 507.589539478740
-748.880643530420 1547.41891930150 527.591561903057
-793.409400030664 1511.07002088231 580.575958564434
-840.149499969629 1572.70384479589 534.741826618633
-826.521045086816 1552.92594496679 502.991730305156
-944.217415393213 1626.43624162816 528.481967982158
-909.671213580469 1634.42256836766 565.973902668438
-911.931977862695 1606.76266348485 495.640556428203
-877.900073138574 1614.26184599218 568.089561994609
-824.312530639795 1563.49151693334 555.101416779766
-785.536789154199 1523.28935109472 490.527675678692
-802.361892212060 1526.87357865209 505.030710059795
-800.995219586328 1560.80454949559 569.082666376934
-913.237957806543 1635.98282611913 565.148909418926
-790.334591302637 1512.50381867284 503.570276472149
-917.649265899805 1613.67104370946 506.886297126445
-725.428692163232 1533.43547655248 530.996815900859
-788.105678143457 1519.23021769628 543.173349006328
-802.792802350000 1571.52206946630 576.679223151836
-832.361829412988 1548.26015397557 518.842607758770
-733.505935095361 1548.66556267308 545.928725367412
-785.173500995020 1524.25940846776 536.864782661113
-866.702900787500 1596.30615000829 558.750448200664
-789.719908624414 1537.76758650731 530.937846644268
-936.151187121729 1613.91332392797 481.576743629131
-779.765360571436 1535.90739986791 582.937833643779
-772.829179986719 1502.21248247899 538.600756965313
-857.896088177637 1584.07175470800 533.806478742656
-802.934648089746 1492.91588825292 547.471114759502
-726.975700439600 1527.02675479955 556.807821278057
-809.031791253809 1563.22376127538 557.469874519023
-804.222088958887 1539.05766530370 505.634533649883
-753.943554693750 1534.98410550145 514.722799067363
-844.883063409570 1554.12865791845 496.862870026836
-821.869541021875 1549.62169690770 502.050132685527
-814.644240472559 1549.13097167577 545.109377448711
-911.294274414209 1630.67757210912 561.684480567608
-744.331425671533 1556.47207793187 524.186215815410
-750.235792181543 1541.25058886327 525.975386780986
-719.266920062402 1530.45908830175 547.541394611797
-744.289019561914 1503.09554549169 556.889964692363
-743.894536029199 1479.54493083104 518.112534614238
-794.701076336816 1505.38049582128 504.818332587871
-809.743924707178 1479.84925074681 520.224352228984
-806.649964422754 1552.83405529393 540.143025666484
-853.006786059717 1601.55627435521 570.864110987529
-770.617262127832 1541.73932736425 499.712615913066
-754.496846594385 1564.24693432836 556.774904114971
-852.504912249902 1580.25428742284 551.921952607402
-756.105889734033 1543.09722441625 556.373028321514
-825.298646771387 1544.05535395116 520.334376923809
-833.457714477686 1554.78237240209 492.053043677959
-784.309685138086 1495.59830625829 541.177975581035
-909.766995709375 1627.87076280126 560.006556342754
-818.492097583154 1554.70599476537 549.187978113994
-751.964191101221 1540.41303698949 490.589324293193
-734.838465789941 1525.97978383397 513.600669685039
-740.945497711328 1536.69464839696 555.427028486309
-774.952962494043 1512.90932765721 563.226401429424
-778.122221161035 1519.68908258886 483.896949262676
-770.766059759668 1545.12523100194 526.228695600566
-926.828403802637 1639.55401518163 552.246292121562
-788.563032727197 1517.67449824437 531.300628040752
-917.993461108545 1625.59344864721 551.843002204570
-756.543308514551 1496.02097170018 548.719046613750
-908.601719122461 1637.33247879247 567.861266889629
-940.576845172266 1614.82097669286 498.791177985820
-756.211566266016 1494.73920701513 551.762042841777
-802.679119806055 1482.53211707372 527.232662678203
-766.791988507227 1545.10468289403 487.347338569316
-874.323363379053 1584.49862166967 504.340359595928
-799.572173584131 1484.22749203099 542.743014686260
-753.832780902246 1570.44269994725 532.915955512676
-912.447236975244 1601.46747632054 520.423501154766
-808.993119598535 1561.30490153417 554.065015119609
-740.800061749414 1507.48785823583 500.434535511455
-767.366842602685 1493.27920863256 538.115430018291
-762.001140838770 1556.16810966405 514.363608527813
-787.957199505762 1519.86353146581 549.177244929180
-873.600806109766 1581.33683777684 494.153278522930
-804.706658661035 1567.05506667089 568.438486823711
-921.319856463769 1603.43995851659 486.540307929668
-724.243244903711 1532.85074390477 545.315711311016
-764.817644238428 1550.55891141576 503.846438410625
-886.377679730371 1586.74438688573 526.572367866191
-757.174281903223 1567.17195290136 541.757866840801
-862.082586639551 1603.50506366796 568.541439326152
-741.028288739160 1501.00320700292 504.382690485820
